0.0973251 3.04111 3.04111 2 2 1
0.0973388 3.06111 3.06111 2 2 1
0.0973524 3.08111 3.08111 2 2 1
0.0973658 3.10111 3.10111 2 2 1
0.0973791 3.12111 3.12111 2 2 1
0.0973923 3.14111 3.14111 2 2 1
0.0974054 3.16111 3.16111 2 2 1
0.0974183 3.18111 3.18111 2 2 1
0.0974311 3.20111 3.20111 2 2 1
0.0974438 3.22111 3.22111 2 2 1
0.0974564 3.24111 3.24111 2 2 1
0.0974688 3.26111 3.26111 2 2 1
0.0974812 3.28111 3.28111 2 2 1
0.0974934 3.30111 3.30111 2 2 1
0.0975055 3.32111 3.32111 2 2 1
0.0975175 3.34111 3.34111 2 2 1
0.0975294 3.36111 3.36111 2 2 1
0.0975412 3.38111 3.38111 2 2 1
0.0975529 3.40111 3.40111 2 2 1
0.0975645 3.42111 3.42111 2 2 1
0.097576 3.4411 3.4411 2 2 1
0.0975873 3.4611 3.4611 2 2 1
0.0975986 3.4811 3.4811 2 2 1
0.0976098 3.5011 3.5011 2 2 1
0.0976208 3.5211 3.5211 2 2 1
0.0976318 3.5411 3.5411 2 2 1
0.0976427 3.5611 3.5611 2 2 1
0.0976534 3.5811 3.5811 2 2 1
0.0976641 3.6011 3.6011 2 2 1
0.0976747 3.6211 3.6211 2 2 1
0.0976852 3.6411 3.6411 2 2 1
0.0976956 3.6611 3.6611 2 2 1
0.0977059 3.6811 3.6811 2 2 1
0.0977161 3.7011 3.7011 2 2 1
0.0977263 3.7211 3.7211 2 2 1
0.0977363 3.7411 3.7411 2 2 1
0.0977463 3.7611 3.7611 2 2 1
0.0977562 3.7811 3.7811 2 2 1
0.097766 3.8011 3.8011 2 2 1
0.0977757 3.8211 3.8211 2 2 1
0.0977853 3.8411 3.8411 2 2 1
0.0977949 3.8611 3.8611 2 2 1
0.0978044 3.8811 3.8811 2 2 1
0.0978137 3.9011 3.9011 2 2 1
0.0978231 3.9211 3.9211 2 2 1
0.0978323 3.9411 3.9411 2 2 1
0.0978415 3.9611 3.9611 2 2 1
0.0978506 3.9811 3.9811 2 2 1
0.0978596 4.0011 4.0011 2 2 1
0.0978685 4.0211 4.0211 2 2 1
0.0978774 4.0411 4.0411 2 2 1
0.0978862 4.0611 4.0611 2 2 1
0.0978949 4.0811 4.0811 2 2 1
0.0979036 4.1011 4.1011 2 2 1
0.0979122 4.1211 4.1211 2 2 1
0.0979207 4.1411 4.1411 2 2 1
0.0979291 4.1611 4.1611 2 2 1
0.0979375 4.1811 4.1811 2 2 1
0.0979458 4.2011 4.2011 2 2 1
0.0979541 4.22109 4.22109 2 2 1
0.0979623 4.24109 4.24109 2 2 1
0.0979704 4.26109 4.26109 2 2 1
0.0979785 4.28109 4.28109 2 2 1
0.0979865 4.30109 4.30109 2 2 1
0.0979944 4.32109 4.32109 2 2 1
0.0980023 4.34109 4.34109 2 2 1
0.0980101 4.36109 4.36109 2 2 1
0.0980179 4.38109 4.38109 2 2 1
0.0980256 4.40109 4.40109 2 2 1
0.0980332 4.42109 4.42109 2 2 1
0.0980408 4.44109 4.44109 2 2 1
0.0980483 4.46109 4.46109 2 2 1
0.0980558 4.48109 4.48109 2 2 1
0.0980632 4.50109 4.50109 2 2 1
0.0980706 4.52109 4.52109 2 2 1
0.0980779 4.54109 4.54109 2 2 1
0.0980851 4.56109 4.56109 2 2 1
0.0980923 4.58109 4.58109 2 2 1
0.0980995 4.60109 4.60109 2 2 1
0.0981066 4.62109 4.62109 2 2 1
0.0981136 4.64109 4.64109 2 2 1
0.0981206 4.66109 4.66109 2 2 1
0.0981275 4.68109 4.68109 2 2 1
0.0981344 4.70109 4.70109 2 2 1
0.0981413 4.72109 4.72109 2 2 1
0.098148 4.74109 4.74109 2 2 1
0.0981548 4.76109 4.76109 2 2 1
0.0981615 4.78109 4.78109 2 2 1
0.0981681 4.80109 4.80109 2 2 1
0.0981747 4.82109 4.82109 2 2 1
0.0981813 4.84109 4.84109 2 2 1
0.0981878 4.86109 4.86109 2 2 1
0.0981942 4.88109 4.88109 2 2 1
0.0982007 4.90109 4.90109 2 2 1
0.098207 4.92109 4.92109 2 2 1
0.0982134 4.94109 4.94109 2 2 1
0.0982196 4.96109 4.96109 2 2 1
0.0982259 4.98109 4.98109 2 2 1
0.0982321 5.00109 5.00109 2 2 1
0.0982382 5.02109 5.02109 2 2 1
0.0982443 5.04109 5.04109 2 2 1
0.0982504 5.06109 5.06109 2 2 1
0.0982564 5.08109 5.08109 2 2 1
0.0982624 5.10109 5.10109 2 2 1
0.0982684 5.12109 5.12109 2 2 1
0.0982743 5.14109 5.14109 2 2 1
0.0982801 5.16109 5.16109 2 2 1
0.098286 5.18109 5.18109 2 2 1
0.0982918 5.20109 5.20109 2 2 1
0.0982975 5.22109 5.22109 2 2 1
0.0983032 5.24109 5.24109 2 2 1
0.0983089 5.26109 5.26109 2 2 1
0.0983145 5.28109 5.28109 2 2 1
0.0983201 5.30109 5.30109 2 2 1
0.0983257 5.32109 5.32109 2 2 1
0.0983312 5.34109 5.34109 2 2 1
0.0983367 5.36109 5.36109 2 2 1
0.0983422 5.38109 5.38109 2 2 1
0.0983476 5.40109 5.40109 2 2 1
0.098353 5.42109 5.42109 2 2 1
0.0983584 5.44109 5.44109 2 2 1
0.0983637 5.46109 5.46109 2 2 1
0.098369 5.48109 5.48109 2 2 1
0.0983742 5.50109 5.50109 2 2 1
0.0983794 5.52109 5.52109 2 2 1
0.0983846 5.54109 5.54109 2 2 1
0.0983898 5.56109 5.56109 2 2 1
0.0983949 5.58109 5.58109 2 2 1
0.0984 5.60109 5.60109 2 2 1
0.098405 5.62109 5.62109 2 2 1
0.09841 5.64109 5.64109 2 2 1
0.098415 5.66109 5.66109 2 2 1
0.09842 5.68109 5.68109 2 2 1
0.0984249 5.70109 5.70109 2 2 1
0.0984298 5.72109 5.72109 2 2 1
0.0984347 5.74109 5.74109 2 2 1
0.0984395 5.76109 5.76109 2 2 1
0.0984444 5.78109 5.78109 2 2 1
0.0984491 5.80109 5.80109 2 2 1
0.0984539 5.82109 5.82109 2 2 1
0.0984586 5.84109 5.84109 2 2 1
0.0984633 5.86109 5.86109 2 2 1
0.098468 5.88109 5.88109 2 2 1
0.0984726 5.90109 5.90109 2 2 1
0.0984772 5.92109 5.92109 2 2 1
0.0984818 5.94109 5.94109 2 2 1
0.0984864 5.96109 5.96109 2 2 1
0.0984909 5.98109 5.98109 2 2 1
0.0984954 6.00109 6.00109 2 2 1
0.0984999 6.02109 6.02109 2 2 1
0.0985043 6.04109 6.04109 2 2 1
0.0985088 6.06109 6.06109 2 2 1
0.0985132 6.08109 6.08109 2 2 1
0.0985175 6.10109 6.10109 2 2 1
0.0985219 6.12109 6.12109 2 2 1
0.0985262 6.14109 6.14109 2 2 1
0.0985305 6.16109 6.16109 2 2 1
0.0985348 6.18109 6.18109 2 2 1
0.098539 6.20109 6.20109 2 2 1
0.0985433 6.22109 6.22109 2 2 1
0.0985475 6.24109 6.24109 2 2 1
0.0985516 6.26109 6.26109 2 2 1
0.0985558 6.28109 6.28109 2 2 1
0.0985599 6.30109 6.30109 2 2 1
0.098564 6.32109 6.32109 2 2 1
0.0985681 6.34109 6.34109 2 2 1
0.0985722 6.36109 6.36109 2 2 1
0.0985762 6.38109 6.38109 2 2 1
0.0985802 6.40109 6.40109 2 2 1
0.0985842 6.42109 6.42109 2 2 1
0.0985882 6.44109 6.44109 2 2 1
0.0985921 6.46109 6.46109 2 2 1
0.098596 6.48109 6.48109 2 2 1
0.0986 6.50109 6.50109 2 2 1
0.0986038 6.52109 6.52109 2 2 1
0.0986077 6.54109 6.54109 2 2 1
0.0986115 6.56109 6.56109 2 2 1
0.0986154 6.58109 6.58109 2 2 1
0.0986192 6.60109 6.60109 2 2 1
0.0986229 6.62109 6.62109 2 2 1
0.0986267 6.64109 6.64109 2 2 1
0.0986304 6.66109 6.66109 2 2 1
0.0986341 6.68109 6.68109 2 2 1
0.0986378 6.70109 6.70109 2 2 1
0.0986415 6.72109 6.72109 2 2 1
0.0986452 6.74109 6.74109 2 2 1
0.0986488 6.76109 6.76109 2 2 1
0.0986524 6.78109 6.78109 2 2 1
0.098656 6.80109 6.80109 2 2 1
0.0986596 6.82109 6.82109 2 2 1
0.0986632 6.84109 6.84109 2 2 1
0.0986667 6.86109 6.86109 2 2 1
0.0986702 6.88109 6.88109 2 2 1
0.0986737 6.90109 6.90109 2 2 1
0.0986772 6.92109 6.92109 2 2 1
0.0986807 6.94109 6.94109 2 2 1
0.0986842 6.96109 6.96109 2 2 1
0.0986876 6.98109 6.98109 2 2 1
0.098691 7.00109 7.00109 2 2 1
0.0986944 7.02109 7.02109 2 2 1
0.0986978 7.04109 7.04109 2 2 1
0.0987011 7.06109 7.06109 2 2 1
0.0987045 7.08109 7.08109 2 2 1
0.0987078 7.10109 7.10109 2 2 1
0.0987111 7.12109 7.12109 2 2 1
0.0987144 7.14109 7.14109 2 2 1
0.0987177 7.16109 7.16109 2 2 1
0.098721 7.18108 7.18108 2 2 1
0.0987242 7.20108 7.20108 2 2 1
0.0987274 7.22108 7.22108 2 2 1
0.0987307 7.24108 7.24108 2 2 1
0.0987339 7.26108 7.26108 2 2 1
0.098737 7.28108 7.28108 2 2 1
0.0987402 7.30108 7.30108 2 2 1
0.0987433 7.32108 7.32108 2 2 1
0.0987465 7.34108 7.34108 2 2 1
0.0987496 7.36108 7.36108 2 2 1
0.0987527 7.38108 7.38108 2 2 1
0.0987558 7.40108 7.40108 2 2 1
0.0987589 7.42108 7.42108 2 2 1
0.0987619 7.44108 7.44108 2 2 1
0.098765 7.46108 7.46108 2 2 1
0.098768 7.48108 7.48108 2 2 1
0.098771 7.50108 7.50108 2 2 1
0.098774 7.52108 7.52108 2 2 1
0.098777 7.54108 7.54108 2 2 1
0.09878 7.56108 7.56108 2 2 1
0.0987829 7.58108 7.58108 2 2 1
0.0987858 7.60108 7.60108 2 2 1
0.0987888 7.62108 7.62108 2 2 1
0.0987917 7.64108 7.64108 2 2 1
0.0987946 7.66108 7.66108 2 2 1
0.0987975 7.68108 7.68108 2 2 1
0.0988003 7.70108 7.70108 2 2 1
0.0988032 7.72108 7.72108 2 2 1
0.098806 7.74108 7.74108 2 2 1
0.0988089 7.76108 7.76108 2 2 1
0.0988117 7.78108 7.78108 2 2 1
0.0988145 7.80108 7.80108 2 2 1
0.0988173 7.82108 7.82108 2 2 1
0.0988201 7.84108 7.84108 2 2 1
0.0988228 7.86108 7.86108 2 2 1
0.0988256 7.88108 7.88108 2 2 1
0.0988283 7.90108 7.90108 2 2 1
0.0988311 7.92108 7.92108 2 2 1
0.0988338 7.94108 7.94108 2 2 1
0.0988365 7.96108 7.96108 2 2 1
0.0988392 7.98108 7.98108 2 2 1
0.0988418 8.00108 8.00108 2 2 1
0.0988445 8.02108 8.02108 2 2 1
0.0988472 8.04108 8.04108 2 2 1
0.0988498 8.06108 8.06108 2 2 1
0.0988524 8.08108 8.08108 2 2 1
0.098855 8.10108 8.10108 2 2 1
0.0988576 8.12108 8.12108 2 2 1
0.0988602 8.14108 8.14108 2 2 1
0.0988628 8.16108 8.16108 2 2 1
0.0988654 8.18108 8.18108 2 2 1
0.0988679 8.20108 8.20108 2 2 1
0.0988705 8.22108 8.22108 2 2 1
0.098873 8.24108 8.24108 2 2 1
0.0988755 8.26108 8.26108 2 2 1
0.0988781 8.28108 8.28108 2 2 1
0.0988806 8.30108 8.30108 2 2 1
0.0988831 8.32108 8.32108 2 2 1
0.0988855 8.34108 8.34108 2 2 1
0.098888 8.36108 8.36108 2 2 1
0.0988905 8.38108 8.38108 2 2 1
0.0988929 8.40108 8.40108 2 2 1
0.0988953 8.42108 8.42108 2 2 1
0.0988978 8.44108 8.44108 2 2 1
0.0989002 8.46108 8.46108 2 2 1
0.0989026 8.48108 8.48108 2 2 1
0.098905 8.50108 8.50108 2 2 1
0.0989074 8.52108 8.52108 2 2 1
0.0989097 8.54108 8.54108 2 2 1
0.0989121 8.56108 8.56108 2 2 1
0.0989145 8.58108 8.58108 2 2 1
0.0989168 8.60108 8.60108 2 2 1
0.0989191 8.62108 8.62108 2 2 1
0.0989215 8.64108 8.64108 2 2 1
0.0989238 8.66108 8.66108 2 2 1
0.0989261 8.68108 8.68108 2 2 1
0.0989284 8.70108 8.70108 2 2 1
0.0989306 8.72108 8.72108 2 2 1
0.0989329 8.74108 8.74108 2 2 1
0.0989352 8.76108 8.76108 2 2 1
0.0989374 8.78108 8.78108 2 2 1
0.0989397 8.80108 8.80108 2 2 1
0.0989419 8.82108 8.82108 2 2 1
0.0989441 8.84108 8.84108 2 2 1
0.0989464 8.86108 8.86108 2 2 1
0.0989486 8.88108 8.88108 2 2 1
0.0989508 8.90108 8.90108 2 2 1
0.098953 8.92108 8.92108 2 2 1
0.0989551 8.94108 8.94108 2 2 1
0.0989573 8.96108 8.96108 2 2 1
0.0989595 8.98108 8.98108 2 2 1
0.0989616 9.00108 9.00108 2 2 1
0.0989638 9.02108 9.02108 2 2 1
0.0989659 9.04108 9.04108 2 2 1
0.098968 9.06108 9.06108 2 2 1
0.0989702 9.08108 9.08108 2 2 1
0.0989723 9.10108 9.10108 2 2 1
0.0989744 9.12108 9.12108 2 2 1
0.0989765 9.14108 9.14108 2 2 1
0.0989785 9.16108 9.16108 2 2 1
0.0989806 9.18108 9.18108 2 2 1
0.0989827 9.20108 9.20108 2 2 1
0.0989847 9.22108 9.22108 2 2 1
0.0989868 9.24108 9.24108 2 2 1
0.0989888 9.26108 9.26108 2 2 1
0.0989909 9.28108 9.28108 2 2 1
0.0989929 9.30108 9.30108 2 2 1
0.0989949 9.32108 9.32108 2 2 1
0.0989969 9.34108 9.34108 2 2 1
0.0989989 9.36108 9.36108 2 2 1
0.0990009 9.38108 9.38108 2 2 1
0.0990029 9.40108 9.40108 2 2 1
0.0990049 9.42108 9.42108 2 2 1
0.0990069 9.44108 9.44108 2 2 1
0.0990088 9.46108 9.46108 2 2 1
0.0990108 9.48108 9.48108 2 2 1
0.0990127 9.50108 9.50108 2 2 1
0.0990147 9.52108 9.52108 2 2 1
0.0990166 9.54108 9.54108 2 2 1
0.0990185 9.56108 9.56108 2 2 1
0.0990204 9.58108 9.58108 2 2 1
0.0990223 9.60108 9.60108 2 2 1
0.0990242 9.62108 9.62108 2 2 1
0.0990261 9.64108 9.64108 2 2 1
0.099028 9.66108 9.66108 2 2 1
0.0990299 9.68108 9.68108 2 2 1
0.0990318 9.70108 9.70108 2 2 1
0.0990336 9.72108 9.72108 2 2 1
0.0990355 9.74108 9.74108 2 2 1
0.0990374 9.76108 9.76108 2 2 1
0.0990392 9.78108 9.78108 2 2 1
0.099041 9.80108 9.80108 2 2 1
0.0990429 9.82108 9.82108 2 2 1
0.0990447 9.84108 9.84108 2 2 1
0.0990465 9.86108 9.86108 2 2 1
0.0990483 9.88108 9.88108 2 2 1
0.0990501 9.90108 9.90108 2 2 1
0.0990519 9.92108 9.92108 2 2 1
0.0990537 9.94108 9.94108 2 2 1
0.0990555 9.96108 9.96108 2 2 1
0.0990573 9.98108 9.98108 2 2 1
0.099059 10.0011 10.0011 2 2 1
0.0990608 10.0211 10.0211 2 2 1
0.0990626 10.0411 10.0411 2 2 1
0.0990643 10.0611 10.0611 2 2 1
0.099066 10.0811 10.0811 2 2 1
0.0990678 10.1011 10.1011 2 2 1
0.0990695 10.1211 10.1211 2 2 1
0.0990712 10.1411 10.1411 2 2 1
0.099073 10.1611 10.1611 2 2 1
0.0990747 10.1811 10.1811 2 2 1
0.0990764 10.2011 10.2011 2 2 1
0.0990781 10.2211 10.2211 2 2 1
0.0990798 10.2411 10.2411 2 2 1
0.0990814 10.2611 10.2611 2 2 1
0.0990831 10.2811 10.2811 2 2 1
0.0990848 10.3011 10.3011 2 2 1
0.0990865 10.3211 10.3211 2 2 1
0.0990881 10.3411 10.3411 2 2 1
0.0990898 10.3611 10.3611 2 2 1
0.0990914 10.3811 10.3811 2 2 1
0.0990931 10.4011 10.4011 2 2 1
0.0990947 10.4211 10.4211 2 2 1
0.0990963 10.4411 10.4411 2 2 1
0.099098 10.4611 10.4611 2 2 1
0.0990996 10.4811 10.4811 2 2 1
0.0991012 10.5011 10.5011 2 2 1
0.0991028 10.5211 10.5211 2 2 1
0.0991044 10.5411 10.5411 2 2 1
0.099106 10.5611 10.5611 2 2 1
0.0991076 10.5811 10.5811 2 2 1
0.0991092 10.6011 10.6011 2 2 1
0.0991108 10.6211 10.6211 2 2 1
0.0991124 10.6411 10.6411 2 2 1
0.0991139 10.6611 10.6611 2 2 1
0.0991155 10.6811 10.6811 2 2 1
0.099117 10.7011 10.7011 2 2 1
0.0991186 10.7211 10.7211 2 2 1
0.0991201 10.7411 10.7411 2 2 1
0.0991217 10.7611 10.7611 2 2 1
0.0991232 10.7811 10.7811 2 2 1
0.0991248 10.8011 10.8011 2 2 1
0.0991263 10.8211 10.8211 2 2 1
0.0991278 10.8411 10.8411 2 2 1
0.0991293 10.8611 10.8611 2 2 1
0.0991308 10.8811 10.8811 2 2 1
0.0991323 10.9011 10.9011 2 2 1
0.0991338 10.9211 10.9211 2 2 1
0.0991353 10.9411 10.9411 2 2 1
0.0991368 10.9611 10.9611 2 2 1
0.0991383 10.9811 10.9811 2 2 1
0.0991398 11.0011 11.0011 2 2 1
0.0991412 11.0211 11.0211 2 2 1
0.0991427 11.0411 11.0411 2 2 1
0.0991442 11.0611 11.0611 2 2 1
0.0991456 11.0811 11.0811 2 2 1
0.0991471 11.1011 11.1011 2 2 1
0.0991485 11.1211 11.1211 2 2 1
0.09915 11.1411 11.1411 2 2 1
0.0991514 11.1611 11.1611 2 2 1
0.0991529 11.1811 11.1811 2 2 1
0.0991543 11.2011 11.2011 2 2 1
0.0991557 11.2211 11.2211 2 2 1
0.0991571 11.2411 11.2411 2 2 1
0.0991586 11.2611 11.2611 2 2 1
0.09916 11.2811 11.2811 2 2 1
0.0991614 11.3011 11.3011 2 2 1
0.0991628 11.3211 11.3211 2 2 1
0.0991642 11.3411 11.3411 2 2 1
0.0991656 11.3611 11.3611 2 2 1
0.0991669 11.3811 11.3811 2 2 1
0.0991683 11.4011 11.4011 2 2 1
0.0991697 11.4211 11.4211 2 2 1
0.0991711 11.4411 11.4411 2 2 1
0.0991725 11.4611 11.4611 2 2 1
0.0991738 11.4811 11.4811 2 2 1
0.0991752 11.5011 11.5011 2 2 1
0.0991765 11.5211 11.5211 2 2 1
0.0991779 11.5411 11.5411 2 2 1
0.0991792 11.5611 11.5611 2 2 1
0.0991806 11.5811 11.5811 2 2 1
0.0991819 11.6011 11.6011 2 2 1
0.0991832 11.6211 11.6211 2 2 1
0.0991846 11.6411 11.6411 2 2 1
0.0991859 11.6611 11.6611 2 2 1
0.0991872 11.6811 11.6811 2 2 1
0.0991885 11.7011 11.7011 2 2 1
0.0991898 11.7211 11.7211 2 2 1
0.0991912 11.7411 11.7411 2 2 1
0.0991925 11.7611 11.7611 2 2 1
0.0991938 11.7811 11.7811 2 2 1
0.0991951 11.8011 11.8011 2 2 1
0.0991963 11.8211 11.8211 2 2 1
0.0991976 11.8411 11.8411 2 2 1
0.0991989 11.8611 11.8611 2 2 1
0.0992002 11.8811 11.8811 2 2 1
0.0992015 11.9011 11.9011 2 2 1
0.0992027 11.9211 11.9211 2 2 1
0.099204 11.9411 11.9411 2 2 1
0.0992053 11.9611 11.9611 2 2 1
0.0992065 11.9811 11.9811 2 2 1
0.0992078 12.0011 12.0011 2 2 1
0.099209 12.0211 12.0211 2 2 1
0.0992103 12.0411 12.0411 2 2 1
0.0992115 12.0611 12.0611 2 2 1
0.0992128 12.0811 12.0811 2 2 1
0.099214 12.1011 12.1011 2 2 1
0.0992152 12.1211 12.1211 2 2 1
0.0992165 12.1411 12.1411 2 2 1
0.0992177 12.1611 12.1611 2 2 1
0.0992189 12.1811 12.1811 2 2 1
0.0992201 12.2011 12.2011 2 2 1
0.0992213 12.2211 12.2211 2 2 1
0.0992225 12.2411 12.2411 2 2 1
0.0992237 12.2611 12.2611 2 2 1
0.0992249 12.2811 12.2811 2 2 1
0.0992261 12.3011 12.3011 2 2 1
0.0992273 12.3211 12.3211 2 2 1
0.0992285 12.3411 12.3411 2 2 1
0.0992297 12.3611 12.3611 2 2 1
0.0992309 12.3811 12.3811 2 2 1
0.0992321 12.4011 12.4011 2 2 1
0.0992332 12.4211 12.4211 2 2 1
0.0992344 12.4411 12.4411 2 2 1
0.0992356 12.4611 12.4611 2 2 1
0.0992368 12.4811 12.4811 2 2 1
0.0992379 12.5011 12.5011 2 2 1
0.0992391 12.5211 12.5211 2 2 1
0.0992402 12.5411 12.5411 2 2 1
0.0992414 12.5611 12.5611 2 2 1
0.0992425 12.5811 12.5811 2 2 1
0.0992437 12.6011 12.6011 2 2 1
0.0992448 12.6211 12.6211 2 2 1
0.0992459 12.6411 12.6411 2 2 1
0.0992471 12.6611 12.6611 2 2 1
0.0992482 12.6811 12.6811 2 2 1
0.0992493 12.7011 12.7011 2 2 1
0.0992505 12.7211 12.7211 2 2 1
0.0992516 12.7411 12.7411 2 2 1
0.0992527 12.7611 12.7611 2 2 1
0.0992538 12.7811 12.7811 2 2 1
0.0992549 12.8011 12.8011 2 2 1
0.099256 12.8211 12.8211 2 2 1
0.0992571 12.8411 12.8411 2 2 1
0.0992582 12.8611 12.8611 2 2 1
0.0992593 12.8811 12.8811 2 2 1
0.0992604 12.9011 12.9011 2 2 1
0.0992615 12.9211 12.9211 2 2 1
0.0992626 12.9411 12.9411 2 2 1
0.0992637 12.9611 12.9611 2 2 1
0.0992648 12.9811 12.9811 2 2 1
0.0992658 13.0011 13.0011 2 2 1
0.0992669 13.0211 13.0211 2 2 1
0.099268 13.0411 13.0411 2 2 1
0.0992691 13.0611 13.0611 2 2 1
0.0992701 13.0811 13.0811 2 2 1
0.0992712 13.1011 13.1011 2 2 1
0.0992722 13.1211 13.1211 2 2 1
0.0992733 13.1411 13.1411 2 2 1
0.0992744 13.1611 13.1611 2 2 1
0.0992754 13.1811 13.1811 2 2 1
0.0992765 13.2011 13.2011 2 2 1
0.0992775 13.2211 13.2211 2 2 1
0.0992785 13.2411 13.2411 2 2 1
0.0992796 13.2611 13.2611 2 2 1
0.0992806 13.2811 13.2811 2 2 1
0.0992816 13.3011 13.3011 2 2 1
0.0992827 13.3211 13.3211 2 2 1
0.0992837 13.3411 13.3411 2 2 1
0.0992847 13.3611 13.3611 2 2 1
0.0992857 13.3811 13.3811 2 2 1
0.0992868 13.4011 13.4011 2 2 1
0.0992878 13.4211 13.4211 2 2 1
0.0992888 13.4411 13.4411 2 2 1
0.0992898 13.4611 13.4611 2 2 1
0.0992908 13.4811 13.4811 2 2 1
0.0992918 13.5011 13.5011 2 2 1
0.0992928 13.5211 13.5211 2 2 1
0.0992938 13.5411 13.5411 2 2 1
0.0992948 13.5611 13.5611 2 2 1
0.0992958 13.5811 13.5811 2 2 1
0.0992968 13.6011 13.6011 2 2 1
0.0992978 13.6211 13.6211 2 2 1
0.0992987 13.6411 13.6411 2 2 1
0.0992997 13.6611 13.6611 2 2 1
0.0993007 13.6811 13.6811 2 2 1
0.0993017 13.7011 13.7011 2 2 1
0.0993026 13.7211 13.7211 2 2 1
0.0993036 13.7411 13.7411 2 2 1
0.0993046 13.7611 13.7611 2 2 1
0.0993056 13.7811 13.7811 2 2 1
0.0993065 13.8011 13.8011 2 2 1
0.0993075 13.8211 13.8211 2 2 1
0.0993084 13.8411 13.8411 2 2 1
0.0993094 13.8611 13.8611 2 2 1
0.0993103 13.8811 13.8811 2 2 1
0.0993113 13.9011 13.9011 2 2 1
0.0993122 13.9211 13.9211 2 2 1
0.0993132 13.9411 13.9411 2 2 1
0.0993141 13.9611 13.9611 2 2 1
0.0993151 13.9811 13.9811 2 2 1
0.099316 14.0011 14.0011 2 2 1
0.0993169 14.0211 14.0211 2 2 1
0.0993179 14.0411 14.0411 2 2 1
0.0993188 14.0611 14.0611 2 2 1
0.0993197 14.0811 14.0811 2 2 1
0.0993206 14.1011 14.1011 2 2 1
0.0993215 14.1211 14.1211 2 2 1
0.0993225 14.1411 14.1411 2 2 1
0.0993234 14.1611 14.1611 2 2 1
0.0993243 14.1811 14.1811 2 2 1
0.0993252 14.2011 14.2011 2 2 1
0.0993261 14.2211 14.2211 2 2 1
0.099327 14.2411 14.2411 2 2 1
0.0993279 14.2611 14.2611 2 2 1
0.0993288 14.2811 14.2811 2 2 1
0.0993297 14.3011 14.3011 2 2 1
0.0993306 14.3211 14.3211 2 2 1
0.0993315 14.3411 14.3411 2 2 1
0.0993324 14.3611 14.3611 2 2 1
0.0993333 14.3811 14.3811 2 2 1
0.0993342 14.4011 14.4011 2 2 1
0.0993351 14.4211 14.4211 2 2 1
0.0993359 14.4411 14.4411 2 2 1
0.0993368 14.4611 14.4611 2 2 1
0.0993377 14.4811 14.4811 2 2 1
0.0993386 14.5011 14.5011 2 2 1
0.0993395 14.5211 14.5211 2 2 1
0.0993403 14.5411 14.5411 2 2 1
0.0993412 14.5611 14.5611 2 2 1
0.0993421 14.5811 14.5811 2 2 1
0.0993429 14.6011 14.6011 2 2 1
0.0993438 14.6211 14.6211 2 2 1
0.0993446 14.6411 14.6411 2 2 1
0.0993455 14.6611 14.6611 2 2 1
0.0993464 14.6811 14.6811 2 2 1
0.0993472 14.7011 14.7011 2 2 1
0.0993481 14.7211 14.7211 2 2 1
0.0993489 14.7411 14.7411 2 2 1
0.0993497 14.7611 14.7611 2 2 1
0.0993506 14.7811 14.7811 2 2 1
0.0993514 14.8011 14.8011 2 2 1
0.0993523 14.8211 14.8211 2 2 1
0.0993531 14.8411 14.8411 2 2 1
0.0993539 14.8611 14.8611 2 2 1
0.0993548 14.8811 14.8811 2 2 1
0.0993556 14.9011 14.9011 2 2 1
0.0993564 14.9211 14.9211 2 2 1
0.0993573 14.9411 14.9411 2 2 1
0.0993581 14.9611 14.9611 2 2 1
0.0993589 14.9811 14.9811 2 2 1
0.0993597 15.0011 15.0011 2 2 1
0.0993605 15.0211 15.0211 2 2 1
0.0993614 15.0411 15.0411 2 2 1
0.0993622 15.0611 15.0611 2 2 1
0.099363 15.0811 15.0811 2 2 1
0.0993638 15.1011 15.1011 2 2 1
0.0993646 15.1211 15.1211 2 2 1
0.0993654 15.1411 15.1411 2 2 1
0.0993662 15.1611 15.1611 2 2 1
0.099367 15.1811 15.1811 2 2 1
0.0993678 15.2011 15.2011 2 2 1
0.0993686 15.2211 15.2211 2 2 1
0.0993694 15.2411 15.2411 2 2 1
0.0993702 15.2611 15.2611 2 2 1
0.099371 15.2811 15.2811 2 2 1
0.0993718 15.3011 15.3011 2 2 1
0.0993726 15.3211 15.3211 2 2 1
0.0993734 15.3411 15.3411 2 2 1
0.0993741 15.3611 15.3611 2 2 1
0.0993749 15.3811 15.3811 2 2 1
0.0993757 15.4011 15.4011 2 2 1
0.0993765 15.4211 15.4211 2 2 1
0.0993773 15.4411 15.4411 2 2 1
0.099378 15.4611 15.4611 2 2 1
0.0993788 15.4811 15.4811 2 2 1
0.0993796 15.5011 15.5011 2 2 1
0.0993803 15.5211 15.5211 2 2 1
0.0993811 15.5411 15.5411 2 2 1
0.0993819 15.5611 15.5611 2 2 1
0.0993826 15.5811 15.5811 2 2 1
0.0993834 15.6011 15.6011 2 2 1
0.0993841 15.6211 15.6211 2 2 1
0.0993849 15.6411 15.6411 2 2 1
0.0993857 15.6611 15.6611 2 2 1
0.0993864 15.6811 15.6811 2 2 1
0.0993872 15.7011 15.7011 2 2 1
0.0993879 15.7211 15.7211 2 2 1
0.0993887 15.7411 15.7411 2 2 1
0.0993894 15.7611 15.7611 2 2 1
0.0993901 15.7811 15.7811 2 2 1
0.0993909 15.8011 15.8011 2 2 1
0.0993916 15.8211 15.8211 2 2 1
0.0993924 15.8411 15.8411 2 2 1
0.0993931 15.8611 15.8611 2 2 1
0.0993938 15.8811 15.8811 2 2 1
0.0993946 15.9011 15.9011 2 2 1
0.0993953 15.9211 15.9211 2 2 1
0.099396 15.9411 15.9411 2 2 1
0.0993968 15.9611 15.9611 2 2 1
0.0993975 15.9811 15.9811 2 2 1
0.0993982 16.0011 16.0011 2 2 1
0.0993989 16.0211 16.0211 2 2 1
0.0993997 16.0411 16.0411 2 2 1
0.0994004 16.0611 16.0611 2 2 1
0.0994011 16.0811 16.0811 2 2 1
0.0994018 16.1011 16.1011 2 2 1
0.0994025 16.1211 16.1211 2 2 1
0.0994032 16.1411 16.1411 2 2 1
0.0994039 16.1611 16.1611 2 2 1
0.0994047 16.1811 16.1811 2 2 1
0.0994054 16.2011 16.2011 2 2 1
0.0994061 16.2211 16.2211 2 2 1
0.0994068 16.2411 16.2411 2 2 1
0.0994075 16.2611 16.2611 2 2 1
0.0994082 16.2811 16.2811 2 2 1
0.0994089 16.3011 16.3011 2 2 1
0.0994096 16.3211 16.3211 2 2 1
0.0994103 16.3411 16.3411 2 2 1
0.099411 16.3611 16.3611 2 2 1
0.0994117 16.3811 16.3811 2 2 1
0.0994123 16.4011 16.4011 2 2 1
0.099413 16.4211 16.4211 2 2 1
0.0994137 16.4411 16.4411 2 2 1
0.0994144 16.4611 16.4611 2 2 1
0.0994151 16.4811 16.4811 2 2 1
0.0994158 16.5011 16.5011 2 2 1
0.0994165 16.5211 16.5211 2 2 1
0.0994171 16.5411 16.5411 2 2 1
0.0994178 16.5611 16.5611 2 2 1
0.0994185 16.5811 16.5811 2 2 1
0.0994192 16.6011 16.6011 2 2 1
0.0994198 16.6211 16.6211 2 2 1
0.0994205 16.6411 16.6411 2 2 1
0.0994212 16.6611 16.6611 2 2 1
0.0994218 16.6811 16.6811 2 2 1
0.0994225 16.7011 16.7011 2 2 1
0.0994232 16.7211 16.7211 2 2 1
0.0994238 16.7411 16.7411 2 2 1
0.0994245 16.7611 16.7611 2 2 1
0.0994252 16.7811 16.7811 2 2 1
0.0994258 16.8011 16.8011 2 2 1
0.0994265 16.8211 16.8211 2 2 1
0.0994271 16.8411 16.8411 2 2 1
0.0994278 16.8611 16.8611 2 2 1
0.0994285 16.8811 16.8811 2 2 1
0.0994291 16.9011 16.9011 2 2 1
0.0994298 16.9211 16.9211 2 2 1
0.0994304 16.9411 16.9411 2 2 1
0.0994311 16.9611 16.9611 2 2 1
0.0994317 16.9811 16.9811 2 2 1
0.0994323 17.0011 17.0011 2 2 1
0.099433 17.0211 17.0211 2 2 1
0.0994336 17.0411 17.0411 2 2 1
0.0994343 17.0611 17.0611 2 2 1
0.0994349 17.0811 17.0811 2 2 1
0.0994355 17.1011 17.1011 2 2 1
0.0994362 17.1211 17.1211 2 2 1
0.0994368 17.1411 17.1411 2 2 1
0.0994374 17.1611 17.1611 2 2 1
0.0994381 17.1811 17.1811 2 2 1
0.0994387 17.2011 17.2011 2 2 1
0.0994393 17.2211 17.2211 2 2 1
0.09944 17.2411 17.2411 2 2 1
0.0994406 17.2611 17.2611 2 2 1
0.0994412 17.2811 17.2811 2 2 1
0.0994418 17.3011 17.3011 2 2 1
0.0994425 17.3211 17.3211 2 2 1
0.0994431 17.3411 17.3411 2 2 1
0.0994437 17.3611 17.3611 2 2 1
0.0994443 17.3811 17.3811 2 2 1
0.0994449 17.4011 17.4011 2 2 1
0.0994455 17.4211 17.4211 2 2 1
0.0994462 17.4411 17.4411 2 2 1
0.0994468 17.4611 17.4611 2 2 1
0.0994474 17.4811 17.4811 2 2 1
0.099448 17.5011 17.5011 2 2 1
0.0994486 17.5211 17.5211 2 2 1
0.0994492 17.5411 17.5411 2 2 1
0.0994498 17.5611 17.5611 2 2 1
0.0994504 17.5811 17.5811 2 2 1
0.099451 17.6011 17.6011 2 2 1
0.0994516 17.6211 17.6211 2 2 1
0.0994522 17.6411 17.6411 2 2 1
0.0994528 17.6611 17.6611 2 2 1
0.0994534 17.6811 17.6811 2 2 1
0.099454 17.7011 17.7011 2 2 1
0.0994546 17.7211 17.7211 2 2 1
0.0994552 17.7411 17.7411 2 2 1
0.0994558 17.7611 17.7611 2 2 1
0.0994564 17.7811 17.7811 2 2 1
0.099457 17.8011 17.8011 2 2 1
0.0994576 17.8211 17.8211 2 2 1
0.0994582 17.8411 17.8411 2 2 1
0.0994587 17.8611 17.8611 2 2 1
0.0994593 17.8811 17.8811 2 2 1
0.0994599 17.9011 17.9011 2 2 1
0.0994605 17.9211 17.9211 2 2 1
0.0994611 17.9411 17.9411 2 2 1
0.0994617 17.9611 17.9611 2 2 1
0.0994622 17.9811 17.9811 2 2 1
0.0994628 18.0011 18.0011 2 2 1
0.0994634 18.0211 18.0211 2 2 1
0.099464 18.0411 18.0411 2 2 1
0.0994645 18.0611 18.0611 2 2 1
0.0994651 18.0811 18.0811 2 2 1
0.0994657 18.1011 18.1011 2 2 1
0.0994662 18.1211 18.1211 2 2 1
0.0994668 18.1411 18.1411 2 2 1
0.0994674 18.1611 18.1611 2 2 1
0.099468 18.1811 18.1811 2 2 1
0.0994685 18.2011 18.2011 2 2 1
0.0994691 18.2211 18.2211 2 2 1
0.0994696 18.2411 18.2411 2 2 1
0.0994702 18.2611 18.2611 2 2 1
0.0994708 18.2811 18.2811 2 2 1
0.0994713 18.3011 18.3011 2 2 1
0.0994719 18.3211 18.3211 2 2 1
0.0994724 18.3411 18.3411 2 2 1
0.099473 18.3611 18.3611 2 2 1
0.0994735 18.3811 18.3811 2 2 1
0.0994741 18.4011 18.4011 2 2 1
0.0994747 18.4211 18.4211 2 2 1
0.0994752 18.4411 18.4411 2 2 1
0.0994758 18.4611 18.4611 2 2 1
0.0994763 18.4811 18.4811 2 2 1
0.0994769 18.5011 18.5011 2 2 1
0.0994774 18.5211 18.5211 2 2 1
0.0994779 18.5411 18.5411 2 2 1
0.0994785 18.5611 18.5611 2 2 1
0.099479 18.5811 18.5811 2 2 1
0.0994796 18.6011 18.6011 2 2 1
0.0994801 18.6211 18.6211 2 2 1
0.0994807 18.6411 18.6411 2 2 1
0.0994812 18.6611 18.6611 2 2 1
0.0994817 18.6811 18.6811 2 2 1
0.0994823 18.7011 18.7011 2 2 1
0.0994828 18.7211 18.7211 2 2 1
0.0994833 18.7411 18.7411 2 2 1
0.0994839 18.7611 18.7611 2 2 1
0.0994844 18.7811 18.7811 2 2 1
0.0994849 18.8011 18.8011 2 2 1
0.0994855 18.8211 18.8211 2 2 1
0.099486 18.8411 18.8411 2 2 1
0.0994865 18.8611 18.8611 2 2 1
0.099487 18.8811 18.8811 2 2 1
0.0994876 18.9011 18.9011 2 2 1
0.0994881 18.9211 18.9211 2 2 1
0.0994886 18.9411 18.9411 2 2 1
0.0994891 18.9611 18.9611 2 2 1
0.0994897 18.9811 18.9811 2 2 1
0.0994902 19.0011 19.0011 2 2 1
0.0994907 19.0211 19.0211 2 2 1
0.0994912 19.0411 19.0411 2 2 1
0.0994917 19.0611 19.0611 2 2 1
0.0994922 19.0811 19.0811 2 2 1
0.0994928 19.1011 19.1011 2 2 1
0.0994933 19.1211 19.1211 2 2 1
0.0994938 19.1411 19.1411 2 2 1
0.0994943 19.1611 19.1611 2 2 1
0.0994948 19.1811 19.1811 2 2 1
0.0994953 19.2011 19.2011 2 2 1
0.0994958 19.2211 19.2211 2 2 1
0.0994963 19.2411 19.2411 2 2 1
0.0994968 19.2611 19.2611 2 2 1
0.0994973 19.2811 19.2811 2 2 1
0.0994979 19.3011 19.3011 2 2 1
0.0994984 19.3211 19.3211 2 2 1
0.0994989 19.3411 19.3411 2 2 1
0.0994994 19.3611 19.3611 2 2 1
0.0994999 19.3811 19.3811 2 2 1
0.0995004 19.4011 19.4011 2 2 1
0.0995009 19.4211 19.4211 2 2 1
0.0995014 19.4411 19.4411 2 2 1
0.0995019 19.4611 19.4611 2 2 1
0.0995023 19.4811 19.4811 2 2 1
0.0995028 19.5011 19.5011 2 2 1
0.0995033 19.5211 19.5211 2 2 1
0.0995038 19.5411 19.5411 2 2 1
0.0995043 19.5611 19.5611 2 2 1
0.0995048 19.5811 19.5811 2 2 1
0.0995053 19.6011 19.6011 2 2 1
0.0995058 19.6211 19.6211 2 2 1
0.0995063 19.6411 19.6411 2 2 1
0.0995068 19.6611 19.6611 2 2 1
0.0995072 19.6811 19.6811 2 2 1
0.0995077 19.7011 19.7011 2 2 1
0.0995082 19.7211 19.7211 2 2 1
0.0995087 19.7411 19.7411 2 2 1
0.0995092 19.7611 19.7611 2 2 1
0.0995097 19.7811 19.7811 2 2 1
0.0995101 19.8011 19.8011 2 2 1
0.0995106 19.8211 19.8211 2 2 1
0.0995111 19.8411 19.8411 2 2 1
0.0995116 19.8611 19.8611 2 2 1
0.0995121 19.8811 19.8811 2 2 1
0.0995125 19.9011 19.9011 2 2 1
0.099513 19.9211 19.9211 2 2 1
0.0995135 19.9411 19.9411 2 2 1
0.0995139 19.9611 19.9611 2 2 1
0.0995144 19.9811 19.9811 2 2 1
0.0995149 20.0011 20.0011 2 2 1
0.0995154 20.0211 20.0211 2 2 1
0.0995158 20.0411 20.0411 2 2 1
0.0995163 20.0611 20.0611 2 2 1
0.0995168 20.0811 20.0811 2 2 1
0.0995172 20.1011 20.1011 2 2 1
0.0995177 20.1211 20.1211 2 2 1
0.0995182 20.1411 20.1411 2 2 1
0.0995186 20.1611 20.1611 2 2 1
0.0995191 20.1811 20.1811 2 2 1
0.0995195 20.2011 20.2011 2 2 1
0.09952 20.2211 20.2211 2 2 1
0.0995205 20.2411 20.2411 2 2 1
0.0995209 20.2611 20.2611 2 2 1
0.0995214 20.2811 20.2811 2 2 1
0.0995218 20.3011 20.3011 2 2 1
0.0995223 20.3211 20.3211 2 2 1
0.0995228 20.3411 20.3411 2 2 1
0.0995232 20.3611 20.3611 2 2 1
0.0995237 20.3811 20.3811 2 2 1
0.0995241 20.4011 20.4011 2 2 1
0.0995246 20.4211 20.4211 2 2 1
0.099525 20.4411 20.4411 2 2 1
0.0995255 20.4611 20.4611 2 2 1
0.0995259 20.4811 20.4811 2 2 1
0.0995264 20.5011 20.5011 2 2 1
0.0995268 20.5211 20.5211 2 2 1
0.0995273 20.5411 20.5411 2 2 1
0.0995277 20.5611 20.5611 2 2 1
0.0995282 20.5811 20.5811 2 2 1
0.0995286 20.6011 20.6011 2 2 1
0.099529 20.6211 20.6211 2 2 1
0.0995295 20.6411 20.6411 2 2 1
0.0995299 20.6611 20.6611 2 2 1
0.0995304 20.6811 20.6811 2 2 1
0.0995308 20.7011 20.7011 2 2 1
0.0995313 20.7211 20.7211 2 2 1
0.0995317 20.7411 20.7411 2 2 1
0.0995321 20.7611 20.7611 2 2 1
0.0995326 20.7811 20.7811 2 2 1
0.099533 20.8011 20.8011 2 2 1
0.0995334 20.8211 20.8211 2 2 1
0.0995339 20.8411 20.8411 2 2 1
0.0995343 20.8611 20.8611 2 2 1
0.0995347 20.8811 20.8811 2 2 1
0.0995352 20.9011 20.9011 2 2 1
0.0995356 20.9211 20.9211 2 2 1
0.099536 20.9411 20.9411 2 2 1
0.0995365 20.9611 20.9611 2 2 1
0.0995369 20.9811 20.9811 2 2 1
0.0995373 21.0011 21.0011 2 2 1
0.0995377 21.0211 21.0211 2 2 1
0.0995382 21.0411 21.0411 2 2 1
0.0995386 21.0611 21.0611 2 2 1
0.099539 21.0811 21.0811 2 2 1
0.0995395 21.1011 21.1011 2 2 1
0.0995399 21.1211 21.1211 2 2 1
0.0995403 21.1411 21.1411 2 2 1
0.0995407 21.1611 21.1611 2 2 1
0.0995411 21.1811 21.1811 2 2 1
0.0995416 21.2011 21.2011 2 2 1
0.099542 21.2211 21.2211 2 2 1
0.0995424 21.2411 21.2411 2 2 1
0.0995428 21.2611 21.2611 2 2 1
0.0995432 21.2811 21.2811 2 2 1
0.0995437 21.3011 21.3011 2 2 1
0.0995441 21.3211 21.3211 2 2 1
0.0995445 21.3411 21.3411 2 2 1
0.0995449 21.3611 21.3611 2 2 1
0.0995453 21.3811 21.3811 2 2 1
0.0995457 21.4011 21.4011 2 2 1
0.0995461 21.4211 21.4211 2 2 1
0.0995465 21.4411 21.4411 2 2 1
0.099547 21.4611 21.4611 2 2 1
0.0995474 21.4811 21.4811 2 2 1
0.0995478 21.5011 21.5011 2 2 1
0.0995482 21.5211 21.5211 2 2 1
0.0995486 21.5411 21.5411 2 2 1
0.099549 21.5611 21.5611 2 2 1
0.0995494 21.5811 21.5811 2 2 1
0.0995498 21.6011 21.6011 2 2 1
0.0995502 21.6211 21.6211 2 2 1
0.0995506 21.6411 21.6411 2 2 1
0.099551 21.6611 21.6611 2 2 1
0.0995514 21.6811 21.6811 2 2 1
0.0995518 21.7011 21.7011 2 2 1
0.0995522 21.7211 21.7211 2 2 1
0.0995526 21.7411 21.7411 2 2 1
0.099553 21.7611 21.7611 2 2 1
0.0995534 21.7811 21.7811 2 2 1
0.0995538 21.8011 21.8011 2 2 1
0.0995542 21.8211 21.8211 2 2 1
0.0995546 21.8411 21.8411 2 2 1
0.099555 21.8611 21.8611 2 2 1
0.0995554 21.8811 21.8811 2 2 1
0.0995558 21.9011 21.9011 2 2 1
0.0995562 21.9211 21.9211 2 2 1
0.0995566 21.9411 21.9411 2 2 1
0.099557 21.9611 21.9611 2 2 1
0.0995574 21.9811 21.9811 2 2 1
0.0995578 22.0011 22.0011 2 2 1
0.0995582 22.0211 22.0211 2 2 1
0.0995586 22.0411 22.0411 2 2 1
0.0995589 22.0611 22.0611 2 2 1
0.0995593 22.0811 22.0811 2 2 1
0.0995597 22.1011 22.1011 2 2 1
0.0995601 22.1211 22.1211 2 2 1
0.0995605 22.1411 22.1411 2 2 1
0.0995609 22.1611 22.1611 2 2 1
0.0995613 22.1811 22.1811 2 2 1
0.0995616 22.2011 22.2011 2 2 1
0.099562 22.2211 22.2211 2 2 1
0.0995624 22.2411 22.2411 2 2 1
0.0995628 22.2611 22.2611 2 2 1
0.0995632 22.2811 22.2811 2 2 1
0.0995636 22.3011 22.3011 2 2 1
0.0995639 22.3211 22.3211 2 2 1
0.0995643 22.3411 22.3411 2 2 1
0.0995647 22.3611 22.3611 2 2 1
0.0995651 22.3811 22.3811 2 2 1
0.0995655 22.4011 22.4011 2 2 1
0.0995658 22.4211 22.4211 2 2 1
0.0995662 22.4411 22.4411 2 2 1
0.0995666 22.4611 22.4611 2 2 1
0.099567 22.4811 22.4811 2 2 1
0.0995673 22.5011 22.5011 2 2 1
0.0995677 22.5211 22.5211 2 2 1
0.0995681 22.5411 22.5411 2 2 1
0.0995685 22.5611 22.5611 2 2 1
0.0995688 22.5811 22.5811 2 2 1
0.0995692 22.6011 22.6011 2 2 1
0.0995696 22.6211 22.6211 2 2 1
0.0995699 22.6411 22.6411 2 2 1
0.0995703 22.6611 22.6611 2 2 1
0.0995707 22.6811 22.6811 2 2 1
0.099571 22.7011 22.7011 2 2 1
0.0995714 22.7211 22.7211 2 2 1
0.0995718 22.7411 22.7411 2 2 1
0.0995721 22.7611 22.7611 2 2 1
0.0995725 22.7811 22.7811 2 2 1
0.0995729 22.8011 22.8011 2 2 1
0.0995732 22.8211 22.8211 2 2 1
0.0995736 22.8411 22.8411 2 2 1
0.099574 22.8611 22.8611 2 2 1
0.0995743 22.8811 22.8811 2 2 1
0.0995747 22.9011 22.9011 2 2 1
0.0995751 22.9211 22.9211 2 2 1
0.0995754 22.9411 22.9411 2 2 1
0.0995758 22.9611 22.9611 2 2 1
0.0995761 22.9811 22.9811 2 2 1
0.0995765 23.0011 23.0011 2 2 1
0.0995768 23.0211 23.0211 2 2 1
0.0995772 23.0411 23.0411 2 2 1
0.0995776 23.0611 23.0611 2 2 1
0.0995779 23.0811 23.0811 2 2 1
0.0995783 23.1011 23.1011 2 2 1
0.0995786 23.1211 23.1211 2 2 1
0.099579 23.1411 23.1411 2 2 1
0.0995793 23.1611 23.1611 2 2 1
0.0995797 23.1811 23.1811 2 2 1
0.09958 23.2011 23.2011 2 2 1
0.0995804 23.2211 23.2211 2 2 1
0.0995807 23.2411 23.2411 2 2 1
0.0995811 23.2611 23.2611 2 2 1
0.0995815 23.2811 23.2811 2 2 1
0.0995818 23.3011 23.3011 2 2 1
0.0995822 23.3211 23.3211 2 2 1
0.0995825 23.3411 23.3411 2 2 1
0.0995828 23.3611 23.3611 2 2 1
0.0995832 23.3811 23.3811 2 2 1
0.0995835 23.4011 23.4011 2 2 1
0.0995839 23.4211 23.4211 2 2 1
0.0995842 23.4411 23.4411 2 2 1
0.0995846 23.4611 23.4611 2 2 1
0.0995849 23.4811 23.4811 2 2 1
0.0995853 23.5011 23.5011 2 2 1
0.0995856 23.5211 23.5211 2 2 1
0.099586 23.5411 23.5411 2 2 1
0.0995863 23.5611 23.5611 2 2 1
0.0995866 23.5811 23.5811 2 2 1
0.099587 23.6011 23.6011 2 2 1
0.0995873 23.6211 23.6211 2 2 1
0.0995877 23.6411 23.6411 2 2 1
0.099588 23.6611 23.6611 2 2 1
0.0995883 23.6811 23.6811 2 2 1
0.0995887 23.7011 23.7011 2 2 1
0.099589 23.7211 23.7211 2 2 1
0.0995894 23.7411 23.7411 2 2 1
0.0995897 23.7611 23.7611 2 2 1
0.09959 23.7811 23.7811 2 2 1
0.0995904 23.8011 23.8011 2 2 1
0.0995907 23.8211 23.8211 2 2 1
0.099591 23.8411 23.8411 2 2 1
0.0995914 23.8611 23.8611 2 2 1
0.0995917 23.8811 23.8811 2 2 1
0.099592 23.9011 23.9011 2 2 1
0.0995924 23.9211 23.9211 2 2 1
0.0995927 23.9411 23.9411 2 2 1
0.099593 23.9611 23.9611 2 2 1
0.0995934 23.9811 23.9811 2 2 1
0.0995937 24.0011 24.0011 2 2 1
0.099594 24.0211 24.0211 2 2 1
0.0995943 24.0411 24.0411 2 2 1
0.0995947 24.0611 24.0611 2 2 1
0.099595 24.0811 24.0811 2 2 1
0.0995953 24.1011 24.1011 2 2 1
0.0995957 24.1211 24.1211 2 2 1
0.099596 24.1411 24.1411 2 2 1
0.0995963 24.1611 24.1611 2 2 1
0.0995966 24.1811 24.1811 2 2 1
0.099597 24.2011 24.2011 2 2 1
0.0995973 24.2211 24.2211 2 2 1
0.0995976 24.2411 24.2411 2 2 1
0.0995979 24.2611 24.2611 2 2 1
0.0995983 24.2811 24.2811 2 2 1
0.0995986 24.3011 24.3011 2 2 1
0.0995989 24.3211 24.3211 2 2 1
0.0995992 24.3411 24.3411 2 2 1
0.0995995 24.3611 24.3611 2 2 1
0.0995999 24.3811 24.3811 2 2 1
0.0996002 24.4011 24.4011 2 2 1
0.0996005 24.4211 24.4211 2 2 1
0.0996008 24.4411 24.4411 2 2 1
0.0996011 24.4611 24.4611 2 2 1
0.0996015 24.4811 24.4811 2 2 1
0.0996018 24.5011 24.5011 2 2 1
0.0996021 24.5211 24.5211 2 2 1
0.0996024 24.5411 24.5411 2 2 1
0.0996027 24.5611 24.5611 2 2 1
0.099603 24.5811 24.5811 2 2 1
0.0996034 24.6011 24.6011 2 2 1
0.0996037 24.6211 24.6211 2 2 1
0.099604 24.6411 24.6411 2 2 1
0.0996043 24.6611 24.6611 2 2 1
0.0996046 24.6811 24.6811 2 2 1
0.0996049 24.7011 24.7011 2 2 1
0.0996052 24.7211 24.7211 2 2 1
0.0996055 24.7411 24.7411 2 2 1
0.0996059 24.7611 24.7611 2 2 1
0.0996062 24.7811 24.7811 2 2 1
0.0996065 24.8011 24.8011 2 2 1
0.0996068 24.8211 24.8211 2 2 1
0.0996071 24.8411 24.8411 2 2 1
0.0996074 24.8611 24.8611 2 2 1
0.0996077 24.8811 24.8811 2 2 1
0.099608 24.9011 24.9011 2 2 1
0.0996083 24.9211 24.9211 2 2 1
0.0996086 24.9411 24.9411 2 2 1
0.0996089 24.9611 24.9611 2 2 1
0.0996092 24.9811 24.9811 2 2 1
0.0996095 25.0011 25.0011 2 2 1
0.0996099 25.0211 25.0211 2 2 1
0.0996102 25.0411 25.0411 2 2 1
0.0996105 25.0611 25.0611 2 2 1
0.0996108 25.0811 25.0811 2 2 1
0.0996111 25.1011 25.1011 2 2 1
0.0996114 25.1211 25.1211 2 2 1
0.0996117 25.1411 25.1411 2 2 1
0.099612 25.1611 25.1611 2 2 1
0.0996123 25.1811 25.1811 2 2 1
0.0996126 25.2011 25.2011 2 2 1
0.0996129 25.2211 25.2211 2 2 1
0.0996132 25.2411 25.2411 2 2 1
0.0996135 25.2611 25.2611 2 2 1
0.0996138 25.2811 25.2811 2 2 1
0.0996141 25.3011 25.3011 2 2 1
0.0996144 25.3211 25.3211 2 2 1
0.0996147 25.3411 25.3411 2 2 1
0.099615 25.3611 25.3611 2 2 1
0.0996153 25.3811 25.3811 2 2 1
0.0996155 25.4011 25.4011 2 2 1
0.0996158 25.4211 25.4211 2 2 1
0.0996161 25.4411 25.4411 2 2 1
0.0996164 25.4611 25.4611 2 2 1
0.0996167 25.4811 25.4811 2 2 1
0.099617 25.5011 25.5011 2 2 1
0.0996173 25.5211 25.5211 2 2 1
0.0996176 25.5411 25.5411 2 2 1
0.0996179 25.5611 25.5611 2 2 1
0.0996182 25.5811 25.5811 2 2 1
0.0996185 25.6011 25.6011 2 2 1
0.0996188 25.6211 25.6211 2 2 1
0.0996191 25.6411 25.6411 2 2 1
0.0996194 25.6611 25.6611 2 2 1
0.0996196 25.6811 25.6811 2 2 1
0.0996199 25.7011 25.7011 2 2 1
0.0996202 25.7211 25.7211 2 2 1
0.0996205 25.7411 25.7411 2 2 1
0.0996208 25.7611 25.7611 2 2 1
0.0996211 25.7811 25.7811 2 2 1
0.0996214 25.8011 25.8011 2 2 1
0.0996217 25.8211 25.8211 2 2 1
0.0996219 25.8411 25.8411 2 2 1
0.0996222 25.8611 25.8611 2 2 1
0.0996225 25.8811 25.8811 2 2 1
0.0996228 25.9011 25.9011 2 2 1
0.0996231 25.9211 25.9211 2 2 1
0.0996234 25.9411 25.9411 2 2 1
0.0996236 25.9611 25.9611 2 2 1
0.0996239 25.9811 25.9811 2 2 1
0.0996242 26.0011 26.0011 2 2 1
0.0996245 26.0211 26.0211 2 2 1
0.0996248 26.0411 26.0411 2 2 1
0.0996251 26.0611 26.0611 2 2 1
0.0996253 26.0811 26.0811 2 2 1
0.0996256 26.1011 26.1011 2 2 1
0.0996259 26.1211 26.1211 2 2 1
0.0996262 26.1411 26.1411 2 2 1
0.0996265 26.1611 26.1611 2 2 1
0.0996267 26.1811 26.1811 2 2 1
0.099627 26.2011 26.2011 2 2 1
0.0996273 26.2211 26.2211 2 2 1
0.0996276 26.2411 26.2411 2 2 1
0.0996278 26.2611 26.2611 2 2 1
0.0996281 26.2811 26.2811 2 2 1
0.0996284 26.3011 26.3011 2 2 1
0.0996287 26.3211 26.3211 2 2 1
0.099629 26.3411 26.3411 2 2 1
0.0996292 26.3611 26.3611 2 2 1
0.0996295 26.3811 26.3811 2 2 1
0.0996298 26.4011 26.4011 2 2 1
0.0996301 26.4211 26.4211 2 2 1
0.0996303 26.4411 26.4411 2 2 1
0.0996306 26.4611 26.4611 2 2 1
0.0996309 26.4811 26.4811 2 2 1
0.0996311 26.5011 26.5011 2 2 1
0.0996314 26.5211 26.5211 2 2 1
0.0996317 26.5411 26.5411 2 2 1
0.099632 26.5611 26.5611 2 2 1
0.0996322 26.5811 26.5811 2 2 1
0.0996325 26.6011 26.6011 2 2 1
0.0996328 26.6211 26.6211 2 2 1
0.099633 26.6411 26.6411 2 2 1
0.0996333 26.6611 26.6611 2 2 1
0.0996336 26.6811 26.6811 2 2 1
0.0996338 26.7011 26.7011 2 2 1
0.0996341 26.7211 26.7211 2 2 1
0.0996344 26.7411 26.7411 2 2 1
0.0996346 26.7611 26.7611 2 2 1
0.0996349 26.7811 26.7811 2 2 1
0.0996352 26.8011 26.8011 2 2 1
0.0996354 26.8211 26.8211 2 2 1
0.0996357 26.8411 26.8411 2 2 1
0.099636 26.8611 26.8611 2 2 1
0.0996362 26.8811 26.8811 2 2 1
0.0996365 26.9011 26.9011 2 2 1
0.0996368 26.9211 26.9211 2 2 1
0.099637 26.9411 26.9411 2 2 1
0.0996373 26.9611 26.9611 2 2 1
0.0996376 26.9811 26.9811 2 2 1
0.0996378 27.0011 27.0011 2 2 1
0.0996381 27.0211 27.0211 2 2 1
0.0996383 27.0411 27.0411 2 2 1
0.0996386 27.0611 27.0611 2 2 1
0.0996389 27.0811 27.0811 2 2 1
0.0996391 27.1011 27.1011 2 2 1
0.0996394 27.1211 27.1211 2 2 1
0.0996396 27.1411 27.1411 2 2 1
0.0996399 27.1611 27.1611 2 2 1
0.0996402 27.1811 27.1811 2 2 1
0.0996404 27.2011 27.2011 2 2 1
0.0996407 27.2211 27.2211 2 2 1
0.0996409 27.2411 27.2411 2 2 1
0.0996412 27.2611 27.2611 2 2 1
0.0996415 27.2811 27.2811 2 2 1
0.0996417 27.3011 27.3011 2 2 1
0.099642 27.3211 27.3211 2 2 1
0.0996422 27.3411 27.3411 2 2 1
0.0996425 27.3611 27.3611 2 2 1
0.0996427 27.3811 27.3811 2 2 1
0.099643 27.4011 27.4011 2 2 1
0.0996432 27.4211 27.4211 2 2 1
0.0996435 27.4411 27.4411 2 2 1
0.0996438 27.4611 27.4611 2 2 1
0.099644 27.4811 27.4811 2 2 1
0.0996443 27.5011 27.5011 2 2 1
0.0996445 27.5211 27.5211 2 2 1
0.0996448 27.5411 27.5411 2 2 1
0.099645 27.5611 27.5611 2 2 1
0.0996453 27.5811 27.5811 2 2 1
0.0996455 27.6011 27.6011 2 2 1
0.0996458 27.6211 27.6211 2 2 1
0.099646 27.6411 27.6411 2 2 1
0.0996463 27.6611 27.6611 2 2 1
0.0996465 27.6811 27.6811 2 2 1
0.0996468 27.7011 27.7011 2 2 1
0.099647 27.7211 27.7211 2 2 1
0.0996473 27.7411 27.7411 2 2 1
0.0996475 27.7611 27.7611 2 2 1
0.0996478 27.7811 27.7811 2 2 1
0.099648 27.8011 27.8011 2 2 1
0.0996483 27.8211 27.8211 2 2 1
0.0996485 27.8411 27.8411 2 2 1
0.0996488 27.8611 27.8611 2 2 1
0.099649 27.8811 27.8811 2 2 1
0.0996492 27.9011 27.9011 2 2 1
0.0996495 27.9211 27.9211 2 2 1
0.0996497 27.9411 27.9411 2 2 1
0.09965 27.9611 27.9611 2 2 1
0.0996502 27.9811 27.9811 2 2 1
0.0996505 28.0011 28.0011 2 2 1
0.0996507 28.0211 28.0211 2 2 1
0.099651 28.0411 28.0411 2 2 1
0.0996512 28.0611 28.0611 2 2 1
0.0996514 28.0811 28.0811 2 2 1
0.0996517 28.1011 28.1011 2 2 1
0.0996519 28.1211 28.1211 2 2 1
0.0996522 28.1411 28.1411 2 2 1
0.0996524 28.1611 28.1611 2 2 1
0.0996527 28.1811 28.1811 2 2 1
0.0996529 28.2011 28.2011 2 2 1
0.0996531 28.2211 28.2211 2 2 1
0.0996534 28.2411 28.2411 2 2 1
0.0996536 28.2611 28.2611 2 2 1
0.0996539 28.2811 28.2811 2 2 1
0.0996541 28.3011 28.3011 2 2 1
0.0996543 28.3211 28.3211 2 2 1
0.0996546 28.3411 28.3411 2 2 1
0.0996548 28.3611 28.3611 2 2 1
0.0996551 28.3811 28.3811 2 2 1
0.0996553 28.4011 28.4011 2 2 1
0.0996555 28.4211 28.4211 2 2 1
0.0996558 28.4411 28.4411 2 2 1
0.099656 28.4611 28.4611 2 2 1
0.0996562 28.4811 28.4811 2 2 1
0.0996565 28.5011 28.5011 2 2 1
0.0996567 28.5211 28.5211 2 2 1
0.0996569 28.5411 28.5411 2 2 1
0.0996572 28.5611 28.5611 2 2 1
0.0996574 28.5811 28.5811 2 2 1
0.0996577 28.6011 28.6011 2 2 1
0.0996579 28.6211 28.6211 2 2 1
0.0996581 28.6411 28.6411 2 2 1
0.0996584 28.6611 28.6611 2 2 1
0.0996586 28.6811 28.6811 2 2 1
0.0996588 28.7011 28.7011 2 2 1
0.0996591 28.7211 28.7211 2 2 1
0.0996593 28.7411 28.7411 2 2 1
0.0996595 28.7611 28.7611 2 2 1
0.0996597 28.7811 28.7811 2 2 1
0.09966 28.8011 28.8011 2 2 1
0.0996602 28.8211 28.8211 2 2 1
0.0996604 28.8411 28.8411 2 2 1
0.0996607 28.8611 28.8611 2 2 1
0.0996609 28.8811 28.8811 2 2 1
0.0996611 28.9011 28.9011 2 2 1
0.0996614 28.9211 28.9211 2 2 1
0.0996616 28.9411 28.9411 2 2 1
0.0996618 28.9611 28.9611 2 2 1
0.099662 28.9811 28.9811 2 2 1
0.0996623 29.0011 29.0011 2 2 1
0.0996625 29.0211 29.0211 2 2 1
0.0996627 29.0411 29.0411 2 2 1
0.099663 29.0611 29.0611 2 2 1
0.0996632 29.0811 29.0811 2 2 1
0.0996634 29.1011 29.1011 2 2 1
0.0996636 29.1211 29.1211 2 2 1
0.0996639 29.1411 29.1411 2 2 1
0.0996641 29.1611 29.1611 2 2 1
0.0996643 29.1811 29.1811 2 2 1
0.0996645 29.2011 29.2011 2 2 1
0.0996648 29.2211 29.2211 2 2 1
0.099665 29.2411 29.2411 2 2 1
0.0996652 29.2611 29.2611 2 2 1
0.0996654 29.2811 29.2811 2 2 1
0.0996657 29.3011 29.3011 2 2 1
0.0996659 29.3211 29.3211 2 2 1
0.0996661 29.3411 29.3411 2 2 1
0.0996663 29.3611 29.3611 2 2 1
0.0996666 29.3811 29.3811 2 2 1
0.0996668 29.4011 29.4011 2 2 1
0.099667 29.4211 29.4211 2 2 1
0.0996672 29.4411 29.4411 2 2 1
0.0996674 29.4611 29.4611 2 2 1
0.0996677 29.4811 29.4811 2 2 1
0.0996679 29.5011 29.5011 2 2 1
0.0996681 29.5211 29.5211 2 2 1
0.0996683 29.5411 29.5411 2 2 1
0.0996685 29.5611 29.5611 2 2 1
0.0996688 29.5811 29.5811 2 2 1
0.099669 29.6011 29.6011 2 2 1
0.0996692 29.6211 29.6211 2 2 1
0.0996694 29.6411 29.6411 2 2 1
0.0996696 29.6611 29.6611 2 2 1
0.0996699 29.6811 29.6811 2 2 1
0.0996701 29.7011 29.7011 2 2 1
0.0996703 29.7211 29.7211 2 2 1
0.0996705 29.7411 29.7411 2 2 1
0.0996707 29.7611 29.7611 2 2 1
0.0996709 29.7811 29.7811 2 2 1
0.0996712 29.8011 29.8011 2 2 1
0.0996714 29.8211 29.8211 2 2 1
0.0996716 29.8411 29.8411 2 2 1
0.0996718 29.8611 29.8611 2 2 1
0.099672 29.8811 29.8811 2 2 1
0.0996722 29.9011 29.9011 2 2 1
0.0996724 29.9211 29.9211 2 2 1
0.0996727 29.9411 29.9411 2 2 1
0.0996729 29.9611 29.9611 2 2 1
0.0996731 29.9811 29.9811 2 2 1
0.0996733 30.0011 30.0011 2 2 1
0.0996735 30.0211 30.0211 2 2 1
0.0996737 30.0411 30.0411 2 2 1
0.0996739 30.0611 30.0611 2 2 1
0.0996742 30.0811 30.0811 2 2 1
0.0996744 30.1011 30.1011 2 2 1
0.0996746 30.1211 30.1211 2 2 1
0.0996748 30.1411 30.1411 2 2 1
0.099675 30.1611 30.1611 2 2 1
0.0996752 30.1811 30.1811 2 2 1
0.0996754 30.2011 30.2011 2 2 1
0.0996756 30.2211 30.2211 2 2 1
0.0996758 30.2411 30.2411 2 2 1
0.0996761 30.2611 30.2611 2 2 1
0.0996763 30.2811 30.2811 2 2 1
0.0996765 30.3011 30.3011 2 2 1
0.0996767 30.3211 30.3211 2 2 1
0.0996769 30.3411 30.3411 2 2 1
0.0996771 30.3611 30.3611 2 2 1
0.0996773 30.3811 30.3811 2 2 1
0.0996775 30.4011 30.4011 2 2 1
0.0996777 30.4211 30.4211 2 2 1
0.0996779 30.4411 30.4411 2 2 1
0.0996781 30.4611 30.4611 2 2 1
0.0996783 30.4811 30.4811 2 2 1
0.0996786 30.5011 30.5011 2 2 1
0.0996788 30.5211 30.5211 2 2 1
0.099679 30.5411 30.5411 2 2 1
0.0996792 30.5611 30.5611 2 2 1
0.0996794 30.5811 30.5811 2 2 1
0.0996796 30.6011 30.6011 2 2 1
0.0996798 30.6211 30.6211 2 2 1
0.09968 30.6411 30.6411 2 2 1
0.0996802 30.6611 30.6611 2 2 1
0.0996804 30.6811 30.6811 2 2 1
0.0996806 30.7011 30.7011 2 2 1
0.0996808 30.7211 30.7211 2 2 1
0.099681 30.7411 30.7411 2 2 1
0.0996812 30.7611 30.7611 2 2 1
0.0996814 30.7811 30.7811 2 2 1
0.0996816 30.8011 30.8011 2 2 1
0.0996818 30.8211 30.8211 2 2 1
0.099682 30.8411 30.8411 2 2 1
0.0996822 30.8611 30.8611 2 2 1
0.0996824 30.8811 30.8811 2 2 1
0.0996826 30.9011 30.9011 2 2 1
0.0996828 30.9211 30.9211 2 2 1
0.099683 30.9411 30.9411 2 2 1
0.0996832 30.9611 30.9611 2 2 1
0.0996834 30.9811 30.9811 2 2 1
0.0996836 31.0011 31.0011 2 2 1
0.0996838 31.0211 31.0211 2 2 1
0.099684 31.0411 31.0411 2 2 1
0.0996842 31.0611 31.0611 2 2 1
0.0996844 31.0811 31.0811 2 2 1
0.0996846 31.1011 31.1011 2 2 1
0.0996848 31.1211 31.1211 2 2 1
0.099685 31.1411 31.1411 2 2 1
0.0996852 31.1611 31.1611 2 2 1
0.0996854 31.1811 31.1811 2 2 1
0.0996856 31.2011 31.2011 2 2 1
0.0996858 31.2211 31.2211 2 2 1
0.099686 31.2411 31.2411 2 2 1
0.0996862 31.2611 31.2611 2 2 1
0.0996864 31.2811 31.2811 2 2 1
0.0996866 31.3011 31.3011 2 2 1
0.0996868 31.3211 31.3211 2 2 1
0.099687 31.3411 31.3411 2 2 1
0.0996872 31.3611 31.3611 2 2 1
0.0996874 31.3811 31.3811 2 2 1
0.0996876 31.4011 31.4011 2 2 1
0.0996878 31.4211 31.4211 2 2 1
0.099688 31.4411 31.4411 2 2 1
0.0996882 31.4611 31.4611 2 2 1
0.0996884 31.4811 31.4811 2 2 1
0.0996886 31.5011 31.5011 2 2 1
0.0996888 31.5211 31.5211 2 2 1
0.0996889 31.5411 31.5411 2 2 1
0.0996891 31.5611 31.5611 2 2 1
0.0996893 31.5811 31.5811 2 2 1
0.0996895 31.6011 31.6011 2 2 1
0.0996897 31.6211 31.6211 2 2 1
0.0996899 31.6411 31.6411 2 2 1
0.0996901 31.6611 31.6611 2 2 1
0.0996903 31.6811 31.6811 2 2 1
0.0996905 31.7011 31.7011 2 2 1
0.0996907 31.7211 31.7211 2 2 1
0.0996909 31.7411 31.7411 2 2 1
0.0996911 31.7611 31.7611 2 2 1
0.0996913 31.7811 31.7811 2 2 1
0.0996914 31.8011 31.8011 2 2 1
0.0996916 31.8211 31.8211 2 2 1
0.0996918 31.8411 31.8411 2 2 1
0.099692 31.8611 31.8611 2 2 1
0.0996922 31.8811 31.8811 2 2 1
0.0996924 31.9011 31.9011 2 2 1
0.0996926 31.9211 31.9211 2 2 1
0.0996928 31.9411 31.9411 2 2 1
0.099693 31.9611 31.9611 2 2 1
0.0996931 31.9811 31.9811 2 2 1
0.0996933 32.0011 32.0011 2 2 1
0.0996935 32.0211 32.0211 2 2 1
0.0996937 32.0411 32.0411 2 2 1
0.0996939 32.0611 32.0611 2 2 1
0.0996941 32.0811 32.0811 2 2 1
0.0996943 32.1011 32.1011 2 2 1
0.0996945 32.1211 32.1211 2 2 1
0.0996946 32.1411 32.1411 2 2 1
0.0996948 32.1611 32.1611 2 2 1
0.099695 32.1811 32.1811 2 2 1
0.0996952 32.2011 32.2011 2 2 1
0.0996954 32.2211 32.2211 2 2 1
0.0996956 32.2411 32.2411 2 2 1
0.0996958 32.2611 32.2611 2 2 1
0.0996959 32.2811 32.2811 2 2 1
0.0996961 32.3011 32.3011 2 2 1
0.0996963 32.3211 32.3211 2 2 1
0.0996965 32.3411 32.3411 2 2 1
0.0996967 32.3611 32.3611 2 2 1
0.0996969 32.3811 32.3811 2 2 1
0.0996971 32.4011 32.4011 2 2 1
0.0996972 32.4211 32.4211 2 2 1
0.0996974 32.4411 32.4411 2 2 1
0.0996976 32.4611 32.4611 2 2 1
0.0996978 32.4811 32.4811 2 2 1
0.099698 32.5011 32.5011 2 2 1
0.0996981 32.5211 32.5211 2 2 1
0.0996983 32.5411 32.5411 2 2 1
0.0996985 32.5611 32.5611 2 2 1
0.0996987 32.5811 32.5811 2 2 1
0.0996989 32.6011 32.6011 2 2 1
0.0996991 32.6211 32.6211 2 2 1
0.0996992 32.6411 32.6411 2 2 1
0.0996994 32.6611 32.6611 2 2 1
0.0996996 32.6811 32.6811 2 2 1
0.0996998 32.7011 32.7011 2 2 1
0.0997 32.7211 32.7211 2 2 1
0.0997001 32.7411 32.7411 2 2 1
0.0997003 32.7611 32.7611 2 2 1
0.0997005 32.7811 32.7811 2 2 1
0.0997007 32.8011 32.8011 2 2 1
0.0997009 32.8211 32.8211 2 2 1
0.099701 32.8411 32.8411 2 2 1
0.0997012 32.8611 32.8611 2 2 1
0.0997014 32.8811 32.8811 2 2 1
0.0997016 32.9011 32.9011 2 2 1
0.0997017 32.9211 32.9211 2 2 1
0.0997019 32.9411 32.9411 2 2 1
0.0997021 32.9611 32.9611 2 2 1
0.0997023 32.9811 32.9811 2 2 1
0.0997025 33.0011 33.0011 2 2 1
0.0997026 33.0211 33.0211 2 2 1
0.0997028 33.0411 33.0411 2 2 1
0.099703 33.0611 33.0611 2 2 1
0.0997032 33.0811 33.0811 2 2 1
0.0997033 33.1011 33.1011 2 2 1
0.0997035 33.1211 33.1211 2 2 1
0.0997037 33.1411 33.1411 2 2 1
0.0997039 33.1611 33.1611 2 2 1
