0.15576 0.2 0.2 2 5 1
0.150224 0.189272 0.189272 2 5 1
0.145441 0.180595 0.180595 2 5 1
0.137143 0.166522 0.166522 2 5 1
0.121868 0.142948 0.142948 2 5 1
0.0919247 0.102284 0.102284 2 5 1
0.0482517 0.050681 0.050681 2 5 1
-0.0121521 -0.0120225 -0.0120225 2 5 1
-0.0908948 -0.0847367 -0.0847367 2 5 1
-0.188433 -0.165928 -0.165928 2 5 1
-0.304941 -0.254405 -0.254405 2 5 1
-0.440843 -0.349476 -0.349476 2 5 1
-0.596952 -0.450806 -0.450806 2 5 1
-0.774441 -0.558223 -0.558223 2 5 1
-0.974763 -0.671547 -0.671547 2 5 1
-1.19947 -0.790358 -0.790358 2 5 1
0.15576 0.2 0.2 2 5 1
0.160422 0.209794 0.209794 2 5 1
0.163404 0.216558 0.216558 2 5 1
0.16714 0.225809 0.225809 2 5 1
0.171313 0.237776 0.237776 2 5 1
0.17502 0.251697 0.251697 2 5 1
0.176651 0.261952 0.261952 2 5 1
0.176858 0.26752 0.26752 2 5 1
0.177036 0.26702 0.26702 2 5 1
0.180423 0.258497 0.258497 2 5 1
0.195433 0.239491 0.239491 2 5 1
0.243017 0.209883 0.209883 2 5 1
0.334376 0.18168 0.18168 2 5 1
0.455596 0.160889 0.160889 2 5 1
0.60706 0.144655 0.144655 2 5 1
0.786253 0.131688 0.131688 2 5 1
0.992531 0.12104 0.12104 2 5 1
1.22653 0.112069 0.112069 2 5 1
1.48989 0.104322 0.104322 2 5 1
1.89182 0.0954756 0.0954756 2 5 1
2.34133 0.0880554 0.0880554 2 5 1
2.81757 0.0820302 0.0820302 2 5 1
3.2975 0.0771724 0.0771724 2 5 1
0.268304 0.2 0.2 2 4 1
0.288176 0.193598 0.193598 2 4 1
0.304354 0.189025 0.189025 2 4 1
0.330462 0.182567 0.182567 2 4 1
0.372964 0.173835 0.173835 2 4 1
0.423619 0.165417 0.165417 2 4 1
0.482914 0.157409 0.157409 2 4 1
0.551594 0.149824 0.149824 2 4 1
0.659136 0.140381 0.140381 2 4 1
0.782499 0.131917 0.131917 2 4 1
0.922641 0.124272 0.124272 2 4 1
1.13839 0.115159 0.115159 2 4 1
1.38185 0.107256 0.107256 2 4 1
1.75394 0.0982161 0.0982161 2 4 1
2.17064 0.090624 0.090624 2 4 1
2.64523 0.0840462 0.0840462 2 4 1
3.12398 0.0788156 0.0788156 2 4 1
0.268304 0.2 0.2 2 4 1
0.250567 0.20668 0.20668 2 4 1
0.238744 0.211812 0.211812 2 4 1
0.223439 0.219568 0.219568 2 4 1
0.205902 0.230788 0.230788 2 4 1
0.192894 0.241973 0.241973 2 4 1
0.184295 0.252192 0.252192 2 4 1
0.179392 0.260564 0.260564 2 4 1
0.177246 0.26621 0.26621 2 4 1
0.176813 0.268137 0.268137 2 4 1
0.17686 0.265075 0.265075 2 4 1
0.175716 0.255251 0.255251 2 4 1
0.170748 0.236006 0.236006 2 4 1
0.157296 0.203138 0.203138 2 4 1
0.126682 0.15011 0.15011 2 4 1
0.064821 0.0694465 0.0694465 2 4 1
-0.0405622 -0.039223 -0.039223 2 4 1
-0.189194 -0.166539 -0.166539 2 4 1
-0.375638 -0.304787 -0.304787 2 4 1
-0.596751 -0.450681 -0.450681 2 4 1
-0.851856 -0.602923 -0.602923 2 4 1
-1.14161 -0.760538 -0.760538 2 4 1
1.16153 0.2 0.2 2 6 5
1.14723 0.169662 0.169662 2 6 5
1.13552 0.154312 0.154312 2 6 5
1.11761 0.131627 0.131627 2 6 5
1.09027 0.0984262 0.0984262 2 6 5
1.04816 0.0505085 0.0505085 2 6 5
0.982544 -0.0170866 -0.0170866 2 6 5
0.879187 -0.108829 -0.108829 2 6 5
0.758757 -0.19786 -0.19786 2 6 5
0.618505 -0.283273 -0.283273 2 6 5
0.454614 -0.364619 -0.364619 2 6 5
0.262417 -0.441529 -0.441529 2 6 5
0.037101 -0.513447 -0.513447 2 6 5
-0.225193 -0.579614 -0.579614 2 6 5
-0.526729 -0.639354 -0.639354 2 6 5
-0.868655 -0.69241 -0.69241 2 6 5
-1.25202 -0.739023 -0.739023 2 6 5
1.16153 0.2 0.2 2 6 5
1.18723 0.225118 0.225118 2 6 5
1.19816 0.24143 0.24143 2 6 5
1.21436 0.266305 0.266305 2 6 5
1.23817 0.304339 0.304339 2 6 5
1.27267 0.362992 0.362992 2 6 5
1.3214 0.454409 0.454409 2 6 5
1.38732 0.597854 0.597854 2 6 5
1.45048 0.762985 0.762985 2 6 5
1.50996 0.95077 0.95077 2 6 5
1.56515 1.16233 1.16233 2 6 5
1.6158 1.39894 1.39894 2 6 5
1.66195 1.66215 1.66215 2 6 5
1.70378 1.95408 1.95408 2 6 5
1.75364 2.39416 2.39416 2 6 5
1.79681 2.89156 2.89156 2 6 5
1.83053 3.3899 3.3899 2 6 5
1.85734 3.88887 3.88887 2 6 5
1.87942 4.3882 4.3882 2 6 5
1.89787 4.88774 4.88774 2 6 5
1.91348 5.38742 5.38742 2 6 5
1.92686 5.88718 5.88718 2 6 5
1.93841 6.38701 6.38701 2 6 5
1.94851 6.88688 6.88688 2 6 5
1.95742 7.38678 7.38678 2 6 5
1.96535 7.8867 7.8867 2 6 5
1.97244 8.38663 8.38663 2 6 5
1.97883 8.88658 8.88658 2 6 5
1.98461 9.38654 9.38654 2 6 5
1.98987 9.88651 9.88651 2 6 5
1.99466 10.3865 10.3865 2 6 5
1.99905 10.8865 10.8865 2 6 5
2.00309 11.3864 11.3864 2 6 5
2.00683 11.8864 11.8864 2 6 5
2.01056 12.3864 12.3864 2 6 5
2.01373 12.8864 12.8864 2 6 5
2.01669 13.3864 13.3864 2 6 5
2.01946 13.8864 13.8864 2 6 5
2.02205 14.3864 14.3864 2 6 5
2.02447 14.8864 14.8864 2 6 5
2.02675 15.3863 15.3863 2 6 5
2.0289 15.8863 15.8863 2 6 5
2.03092 16.3863 16.3863 2 6 5
2.03284 16.8863 16.8863 2 6 5
2.03465 17.3863 17.3863 2 6 5
2.03636 17.8863 17.8863 2 6 5
2.03799 18.3863 18.3863 2 6 5
2.03954 18.8863 18.8863 2 6 5
2.04101 19.3863 19.3863 2 6 5
2.04241 19.8863 19.8863 2 6 5
2.04374 20.3863 20.3863 2 6 5
2.04502 20.8863 20.8863 2 6 5
2.04624 21.3863 21.3863 2 6 5
2.0474 21.8863 21.8863 2 6 5
2.04851 22.3863 22.3863 2 6 5
2.04922 22.8863 22.8863 2 6 5
2.05033 23.3863 23.3863 2 6 5
2.05153 23.8863 23.8863 2 6 5
2.05268 24.3863 24.3863 2 6 5
2.05363 24.8863 24.8863 2 6 5
2.05446 25.3863 25.3863 2 6 5
2.05524 25.8863 25.8863 2 6 5
2.056 26.3863 26.3863 2 6 5
2.05675 26.8863 26.8863 2 6 5
2.0576 27.3863 27.3863 2 6 5
2.05833 27.8863 27.8863 2 6 5
2.05902 28.3863 28.3863 2 6 5
2.05968 28.8863 28.8863 2 6 5
2.06033 29.3863 29.3863 2 6 5
2.06096 29.8863 29.8863 2 6 5
2.06154 30.3863 30.3863 2 6 5
2.0622 30.8863 30.8863 2 6 5
2.06279 31.3863 31.3863 2 6 5
2.06336 31.8863 31.8863 2 6 5
2.0639 32.3863 32.3863 2 6 5
2.06443 32.8863 32.8863 2 6 5
2.06493 33.3863 33.3863 2 6 5
2.06543 33.8863 33.8863 2 6 5
2.06591 34.3863 34.3863 2 6 5
2.06635 34.8863 34.8863 2 6 5
2.06685 35.3863 35.3863 2 6 5
2.06731 35.8863 35.8863 2 6 5
2.06775 36.3863 36.3863 2 6 5
2.06817 36.8863 36.8863 2 6 5
2.06858 37.3863 37.3863 2 6 5
2.06898 37.8863 37.8863 2 6 5
2.06937 38.3863 38.3863 2 6 5
2.06974 38.8863 38.8863 2 6 5
2.0701 39.3863 39.3863 2 6 5
2.07049 39.8863 39.8863 2 6 5
2.07086 40.3863 40.3863 2 6 5
2.0712 40.8863 40.8863 2 6 5
2.07154 41.3863 41.3863 2 6 5
2.07186 41.8863 41.8863 2 6 5
2.07218 42.3863 42.3863 2 6 5
2.0725 42.8863 42.8863 2 6 5
2.0728 43.3863 43.3863 2 6 5
2.07315 43.8863 43.8863 2 6 5
2.07343 44.3863 44.3863 2 6 5
2.0737 44.8863 44.8863 2 6 5
2.07398 45.3863 45.3863 2 6 5
2.07424 45.8863 45.8863 2 6 5
2.07453 46.3863 46.3863 2 6 5
2.07479 46.8863 46.8863 2 6 5
2.07505 47.3863 47.3863 2 6 5
2.07531 47.8863 47.8863 2 6 5
2.07556 48.3863 48.3863 2 6 5
2.0758 48.8863 48.8863 2 6 5
2.07604 49.3863 49.3863 2 6 5
2.07627 49.8863 49.8863 2 6 5
2.0765 50.3863 50.3863 2 6 5
2.07671 50.8863 50.8863 2 6 5
2.07695 51.3863 51.3863 2 6 5
2.07717 51.8863 51.8863 2 6 5
2.07739 52.3863 52.3863 2 6 5
2.0776 52.8863 52.8863 2 6 5
2.0778 53.3863 53.3863 2 6 5
2.078 53.8863 53.8863 2 6 5
2.0782 54.3863 54.3863 2 6 5
2.07839 54.8863 54.8863 2 6 5
2.07858 55.3863 55.3863 2 6 5
2.07876 55.8863 55.8863 2 6 5
2.07896 56.3863 56.3863 2 6 5
2.07914 56.8863 56.8863 2 6 5
2.07932 57.3863 57.3863 2 6 5
2.07949 57.8863 57.8863 2 6 5
2.07966 58.3863 58.3863 2 6 5
2.07983 58.8863 58.8863 2 6 5
2.08 59.3863 59.3863 2 6 5
2.08013 59.8863 59.8863 2 6 5
2.08031 60.3863 60.3863 2 6 5
2.08049 60.8863 60.8863 2 6 5
2.08065 61.3863 61.3863 2 6 5
2.0808 61.8863 61.8863 2 6 5
2.08095 62.3863 62.3863 2 6 5
2.08109 62.8863 62.8863 2 6 5
2.08124 63.3863 63.3863 2 6 5
2.08135 63.8863 63.8863 2 6 5
2.08151 64.3863 64.3863 2 6 5
2.08167 64.8863 64.8863 2 6 5
2.08181 65.3863 65.3863 2 6 5
2.08195 65.8863 65.8863 2 6 5
2.08208 66.3863 66.3863 2 6 5
2.08221 66.8863 66.8863 2 6 5
2.08233 67.3863 67.3863 2 6 5
2.08245 67.8863 67.8863 2 6 5
2.08258 68.3863 68.3863 2 6 5
2.08272 68.8863 68.8863 2 6 5
2.08284 69.3863 69.3863 2 6 5
2.08296 69.8863 69.8863 2 6 5
2.08308 70.3863 70.3863 2 6 5
2.08319 70.8863 70.8863 2 6 5
2.08331 71.3863 71.3863 2 6 5
2.08342 71.8863 71.8863 2 6 5
2.08354 72.3863 72.3863 2 6 5
2.08365 72.8863 72.8863 2 6 5
2.08376 73.3863 73.3863 2 6 5
2.08387 73.8863 73.8863 2 6 5
2.08397 74.3863 74.3863 2 6 5
2.08408 74.8863 74.8863 2 6 5
2.08418 75.3863 75.3863 2 6 5
2.08428 75.8863 75.8863 2 6 5
2.08438 76.3863 76.3863 2 6 5
2.08449 76.8863 76.8863 2 6 5
2.08459 77.3863 77.3863 2 6 5
2.08468 77.8863 77.8863 2 6 5
2.08478 78.3863 78.3863 2 6 5
2.08487 78.8863 78.8863 2 6 5
2.08497 79.3863 79.3863 2 6 5
2.08506 79.8863 79.8863 2 6 5
2.08515 80.3863 80.3863 2 6 5
2.08525 80.8863 80.8863 2 6 5
2.08533 81.3863 81.3863 2 6 5
2.08542 81.8863 81.8863 2 6 5
2.08551 82.3863 82.3863 2 6 5
2.08559 82.8863 82.8863 2 6 5
2.08568 83.3863 83.3863 2 6 5
2.08577 83.8863 83.8863 2 6 5
2.08585 84.3863 84.3863 2 6 5
2.08593 84.8863 84.8863 2 6 5
2.08601 85.3863 85.3863 2 6 5
2.08609 85.8863 85.8863 2 6 5
2.08617 86.3863 86.3863 2 6 5
2.08622 86.8863 86.8863 2 6 5
2.08632 87.3863 87.3863 2 6 5
2.0864 87.8863 87.8863 2 6 5
2.08649 88.3863 88.3863 2 6 5
2.08656 88.8863 88.8863 2 6 5
2.08663 89.3863 89.3863 2 6 5
2.0867 89.8863 89.8863 2 6 5
2.08677 90.3863 90.3863 2 6 5
2.08685 90.8863 90.8863 2 6 5
2.08692 91.3863 91.3863 2 6 5
2.08699 91.8863 91.8863 2 6 5
2.08706 92.3863 92.3863 2 6 5
2.08713 92.8863 92.8863 2 6 5
2.08719 93.3863 93.3863 2 6 5
2.08726 93.8863 93.8863 2 6 5
2.08733 94.3863 94.3863 2 6 5
2.0874 94.8863 94.8863 2 6 5
0.211313 0.2 0.2 2 3 1
0.229751 0.190674 0.190674 2 3 1
0.244883 0.184069 0.184069 2 3 1
0.269548 0.174819 0.174819 2 3 1
0.310233 0.162491 0.162491 2 3 1
0.359391 0.150848 0.150848 2 3 1
0.417505 0.140056 0.140056 2 3 1
0.485138 0.130157 0.130157 2 3 1
0.563065 0.121103 0.121103 2 3 1
0.684494 0.110265 0.110265 2 3 1
0.823108 0.100954 0.100954 2 3 1
0.979959 0.0928677 0.0928677 2 3 1
1.22065 0.0836322 0.0836322 2 3 1
1.49141 0.0759623 0.0759623 2 3 1
1.9043 0.0675878 0.0675878 2 3 1
2.3657 0.0608571 0.0608571 2 3 1
2.84261 0.0557145 0.0557145 2 3 1
3.32302 0.0516725 0.0516725 2 3 1
0.211313 0.2 0.2 2 3 1
0.194927 0.209869 0.209869 2 3 1
0.183982 0.217585 0.217585 2 3 1
0.169619 0.229609 0.229609 2 3 1
0.152316 0.248432 0.248432 2 3 1
0.137843 0.270514 0.270514 2 3 1
0.125913 0.297239 0.297239 2 3 1
0.116082 0.331613 0.331613 2 3 1
0.108061 0.379477 0.379477 2 3 1
0.10194 0.450169 0.450169 2 3 1
0.0980617 0.550098 0.550098 2 3 1
0.0961457 0.67414 0.67414 2 3 1
0.0953796 0.81612 0.81612 2 3 1
0.0951911 0.974244 0.974244 2 3 1
0.0952677 1.14904 1.14904 2 3 1
0.0955873 1.41131 1.41131 2 3 1
0.0961081 1.80506 1.80506 2 3 1
0.0966855 2.30495 2.30495 2 3 1
0.097144 2.8049 2.8049 2 3 1
0.097493 3.30488 3.30488 2 3 1
0.0977668 3.80487 3.80487 2 3 1
0.0980399 4.30486 4.30486 2 3 1
0.0982073 4.80486 4.80486 2 3 1
0.0983507 5.30485 5.30485 2 3 1
0.098473 5.80485 5.80485 2 3 1
0.0985789 6.30485 6.30485 2 3 1
0.0986713 6.80485 6.80485 2 3 1
0.0987527 7.30485 7.30485 2 3 1
0.0988249 7.80485 7.80485 2 3 1
0.0988892 8.30485 8.30485 2 3 1
0.098947 8.80485 8.80485 2 3 1
0.0989992 9.30485 9.30485 2 3 1
0.0990464 9.80485 9.80485 2 3 1
0.0990895 10.3049 10.3049 2 3 1
0.0991288 10.8049 10.8049 2 3 1
0.099165 11.3049 11.3049 2 3 1
0.0991982 11.8049 11.8049 2 3 1
0.099229 12.3049 12.3049 2 3 1
0.0992574 12.8049 12.8049 2 3 1
0.0992839 13.3049 13.3049 2 3 1
0.0993085 13.8049 13.8049 2 3 1
0.0993316 14.3049 14.3049 2 3 1
0.0993531 14.8049 14.8049 2 3 1
0.0993733 15.3049 15.3049 2 3 1
0.0993923 15.8049 15.8049 2 3 1
0.0994101 16.3049 16.3049 2 3 1
0.099427 16.8049 16.8049 2 3 1
0.0994429 17.3049 17.3049 2 3 1
0.099458 17.8049 17.8049 2 3 1
0.0994722 18.3049 18.3049 2 3 1
0.0994858 18.8049 18.8049 2 3 1
0.0994986 19.3049 19.3049 2 3 1
0.0995109 19.8049 19.8049 2 3 1
0.0995225 20.3049 20.3049 2 3 1
0.0995336 20.8049 20.8049 2 3 1
0.0995442 21.3049 21.3049 2 3 1
0.0995544 21.8049 21.8049 2 3 1
0.0995641 22.3049 22.3049 2 3 1
0.0995734 22.8049 22.8049 2 3 1
0.0995823 23.3049 23.3049 2 3 1
0.0995908 23.8049 23.8049 2 3 1
0.099599 24.3049 24.3049 2 3 1
0.0996069 24.8049 24.8049 2 3 1
0.0996144 25.3049 25.3049 2 3 1
0.0996217 25.8049 25.8049 2 3 1
0.0996287 26.3049 26.3049 2 3 1
0.0996355 26.8049 26.8049 2 3 1
0.099642 27.3049 27.3049 2 3 1
0.0996483 27.8049 27.8049 2 3 1
0.0996544 28.3049 28.3049 2 3 1
0.0996602 28.8049 28.8049 2 3 1
0.0996659 29.3049 29.3049 2 3 1
0.0996714 29.8049 29.8049 2 3 1
0.0996767 30.3049 30.3049 2 3 1
0.0996818 30.8049 30.8049 2 3 1
0.0996868 31.3049 31.3049 2 3 1
0.0996916 31.8049 31.8049 2 3 1
0.0996963 32.3049 32.3049 2 3 1
0.0997009 32.8049 32.8049 2 3 1
0.0997053 33.3049 33.3049 2 3 1
0.0997095 33.8049 33.8049 2 3 1
0.0997137 34.3049 34.3049 2 3 1
0.0997177 34.8049 34.8049 2 3 1
0.0997217 35.3049 35.3049 2 3 1
0.0997255 35.8049 35.8049 2 3 1
0.0997292 36.3049 36.3049 2 3 1
0.0997328 36.8049 36.8049 2 3 1
0.0997363 37.3049 37.3049 2 3 1
0.0997398 37.8049 37.8049 2 3 1
0.0997431 38.3049 38.3049 2 3 1
0.0997464 38.8049 38.8049 2 3 1
0.0997495 39.3049 39.3049 2 3 1
0.0997526 39.8049 39.8049 2 3 1
0.0997556 40.3049 40.3049 2 3 1
0.0997586 40.8049 40.8049 2 3 1
0.0997615 41.3049 41.3049 2 3 1
0.0997643 41.8049 41.8049 2 3 1
0.099767 42.3049 42.3049 2 3 1
0.0997697 42.8049 42.8049 2 3 1
0.0997723 43.3049 43.3049 2 3 1
0.0997749 43.8049 43.8049 2 3 1
0.0997774 44.3049 44.3049 2 3 1
0.0997798 44.8049 44.8049 2 3 1
0.0997822 45.3049 45.3049 2 3 1
0.0997846 45.8049 45.8049 2 3 1
0.0997869 46.3049 46.3049 2 3 1
0.0997891 46.8049 46.8049 2 3 1
0.0997913 47.3049 47.3049 2 3 1
0.0997935 47.8049 47.8049 2 3 1
0.0997956 48.3049 48.3049 2 3 1
0.0997977 48.8049 48.8049 2 3 1
0.0997997 49.3049 49.3049 2 3 1
0.0998017 49.8049 49.8049 2 3 1
0.0998036 50.3049 50.3049 2 3 1
0.0998055 50.8049 50.8049 2 3 1
0.0998074 51.3049 51.3049 2 3 1
0.0998092 51.8049 51.8049 2 3 1
0.099811 52.3049 52.3049 2 3 1
0.0998128 52.8049 52.8049 2 3 1
0.0998145 53.3049 53.3049 2 3 1
0.0998162 53.8049 53.8049 2 3 1
0.0998179 54.3049 54.3049 2 3 1
0.0998196 54.8049 54.8049 2 3 1
0.0998212 55.3049 55.3049 2 3 1
0.0998228 55.8049 55.8049 2 3 1
0.0998243 56.3049 56.3049 2 3 1
0.0998258 56.8049 56.8049 2 3 1
0.0998273 57.3049 57.3049 2 3 1
0.0998288 57.8049 57.8049 2 3 1
0.0998303 58.3049 58.3049 2 3 1
0.0998317 58.8049 58.8049 2 3 1
0.0998331 59.3049 59.3049 2 3 1
0.0998345 59.8049 59.8049 2 3 1
0.0998358 60.3049 60.3049 2 3 1
0.0998372 60.8049 60.8049 2 3 1
0.0998385 61.3049 61.3049 2 3 1
0.0998398 61.8049 61.8049 2 3 1
0.0998411 62.3049 62.3049 2 3 1
0.0998423 62.8049 62.8049 2 3 1
0.0998435 63.3049 63.3049 2 3 1
0.0998448 63.8049 63.8049 2 3 1
0.099846 64.3049 64.3049 2 3 1
0.0998471 64.8049 64.8049 2 3 1
0.0998483 65.3049 65.3049 2 3 1
0.0998494 65.8049 65.8049 2 3 1
0.0998506 66.3049 66.3049 2 3 1
0.0998517 66.8049 66.8049 2 3 1
0.0998528 67.3049 67.3049 2 3 1
0.0998538 67.8049 67.8049 2 3 1
0.0998549 68.3049 68.3049 2 3 1
0.0998559 68.8049 68.8049 2 3 1
0.099857 69.3049 69.3049 2 3 1
0.099858 69.8049 69.8049 2 3 1
0.099859 70.3049 70.3049 2 3 1
0.09986 70.8049 70.8049 2 3 1
0.0998609 71.3049 71.3049 2 3 1
0.0998619 71.8049 71.8049 2 3 1
0.0998629 72.3049 72.3049 2 3 1
0.0998638 72.8049 72.8049 2 3 1
0.0998647 73.3049 73.3049 2 3 1
0.0998656 73.8049 73.8049 2 3 1
0.0998665 74.3049 74.3049 2 3 1
0.0998674 74.8049 74.8049 2 3 1
0.0998683 75.3049 75.3049 2 3 1
0.0998691 75.8049 75.8049 2 3 1
0.09987 76.3049 76.3049 2 3 1
0.0998708 76.8049 76.8049 2 3 1
0.0998717 77.3049 77.3049 2 3 1
0.0998725 77.8049 77.8049 2 3 1
0.0998733 78.3049 78.3049 2 3 1
0.0998741 78.8049 78.8049 2 3 1
0.0998749 79.3049 79.3049 2 3 1
0.0998756 79.8049 79.8049 2 3 1
0.0998764 80.3049 80.3049 2 3 1
0.0998772 80.8049 80.8049 2 3 1
0.0998779 81.3049 81.3049 2 3 1
0.0998787 81.8049 81.8049 2 3 1
0.0998794 82.3049 82.3049 2 3 1
0.0998801 82.8049 82.8049 2 3 1
0.0998808 83.3049 83.3049 2 3 1
0.0998815 83.8049 83.8049 2 3 1
0.0998822 84.3049 84.3049 2 3 1
0.0998829 84.8049 84.8049 2 3 1
0.0998836 85.3049 85.3049 2 3 1
0.0998843 85.8049 85.8049 2 3 1
0.0998849 86.3049 86.3049 2 3 1
0.0998856 86.8049 86.8049 2 3 1
0.0998863 87.3049 87.3049 2 3 1
0.0998869 87.8049 87.8049 2 3 1
0.0998875 88.3049 88.3049 2 3 1
0.0998882 88.8049 88.8049 2 3 1
0.0998888 89.3049 89.3049 2 3 1
0.0998894 89.8049 89.8049 2 3 1
0.09989 90.3049 90.3049 2 3 1
0.0998906 90.8049 90.8049 2 3 1
0.0998912 91.3049 91.3049 2 3 1
0.0998918 91.8049 91.8049 2 3 1
0.0998924 92.3049 92.3049 2 3 1
0.0998929 92.8049 92.8049 2 3 1
0.0998935 93.3049 93.3049 2 3 1
